ply
format ascii 1.0
element vertex 958
property float x
property float y
property float z
element face 0
property list uchar int vertex_indices
property list uchar float texcoord
end_header
 312.97 95.23214417564904 69.61885318618408
 312.97 94.91237330818409 72.43753668484601
 312.97 90.34364101664198 70.64514409657346
 312.97 88.01643686683569 71.11581068525834
 312.97 86.64443380875458 70.38785076689982
 312.97 84.64332461850422 70.77736741282939
 312.97 81.59818894396321 71.3535072717014
 312.97 79.29525659675404 70.7758620765091
 312.97 78.563767680978 73.15759997204191
 312.97 74.70713279607303 73.58282644419597
 312.97 72.73291212629199 73.9158520486011
 312.97 71.59180531942486 77.60442891530113
 312.97 68.69315313606735 79.82052397961672
 312.97 56.56417345779883 54.31797780061851
 312.97 53.9087574416634 54.65650651145722
 312.97 51.15706786099797 54.99049354693727
 312.97 49.93592878958375 55.13321274995093
 312.97 44.75790948965541 56.45071817592532
 312.97 42.93467720982608 58.135989325729156
 312.97 42.12503047653354 59.96582647866143
 312.97 40.50694793312384 60.12088524699061
 312.97 16.988153739952306 17.69336874597809
 312.97 2.396643337813345 26.52329655984596
 312.97 -13.287035825274796 56.574027662758
 312.97 -15.387289319968074 57.753797111912604
 312.97 -19.090281784135666 57.60496426279144
 312.97 -20.492389469317278 58.290287566802704
 312.97 -24.000370942023576 60.35846940743943
 312.97 -25.505098283566117 62.77173015781699
 312.97 -36.97274759656983 72.18868438188002
 312.97 -39.59746670334882 72.70540591244406
 312.97 -41.41692315885243 74.28442134393157
 312.97 -44.3525608031724 72.99256491547254
 312.97 -46.88778719210261 71.97467760444488
 312.97 -50.342852733609945 70.58602989933883
 312.97 -52.07365374383103 70.38114698590607
 312.97 -54.92940037393528 66.5282715711092
 312.97 -54.827298755034654 70.29120566181518
 312.97 -62.50920385732918 68.50255124900315
 312.97 -65.28750217416881 71.3443470368075
 312.97 -68.2797456180723 68.13548342912071
 312.97 -70.96994872067383 67.70598646876402
 312.97 -70.45203624043538 70.53991673514571
 312.97 -80.65534579320477 66.2778177386466
 312.97 -82.64700327177968 66.65733833608328
 312.97 -87.27737776046853 65.51285343264846
 312.97 -88.01643686683559 64.61581068525834
 312.97 -91.72203759935526 64.86091082703234
 312.97 -94.48622298155395 65.02873286978604
 312.97 -105.43137593309896 63.565420705227325
 312.97 -108.14016409426372 62.917252741637355
 312.97 -112.71569741667415 60.78813925603447
 312.97 -114.6864618315249 61.038638962254254
 312.97 -114.57681683356566 62.316636346729354
 312.97 -117.7642043036112 61.49282404758151
 312.97 -149.68954757251285 -2.860646525570644
 312.97 -145.3949057351873 40.76116560206128
 312.97 -145.8575159991809 87.86505030906392
 312.97 -162.0752681802235 39.24331617101643
 314.7613 167.95194004299069 -135.4492675090048
 314.7613 194.26981473471218 29.128094318126386
 314.7613 190.94437898479524 34.94531916101397
 314.7613 184.61726685454408 47.151774609130314
 314.7613 177.3851823970079 33.87820339808269
 314.7613 174.05619879643822 34.10348868384955
 314.7613 174.79395631825406 30.583577747076504
 314.7613 168.92345558534933 34.95535965279737
 314.7613 162.28280201109112 23.283043124296
 314.7613 159.53193132381875 57.474395755239584
 314.7613 161.56372735198576 109.53041537625944
 314.7613 162.04299545912838 259.6156424009799
 314.7613 140.5598728657399 57.09127484862137
 314.7613 139.18086377905732 59.259758670254996
 314.7613 137.690780484723 59.70788877582663
 314.7613 134.95018264259363 61.27103145856722
 314.7613 130.75067299488006 60.73900525817169
 314.7613 128.7185817255725 60.56609316147461
 314.7613 127.59265854005716 59.132372599645464
 314.7613 122.99835262260436 60.14714187007712
 314.7613 122.55198260288864 59.51780295584143
 314.7613 118.32742570850544 60.39014902275221
 314.7613 115.45316712974942 62.133348159728826
 314.7613 114.13090908597515 63.469657782255126
 314.7613 112.48185004361238 63.134131162035374
 314.7613 108.5407662703096 64.85227766950942
 314.7613 107.55908603203156 67.08849390620827
 314.7613 103.6462814257423 66.01031280315902
 314.7613 102.45504621925824 67.53467531582908
 314.7613 99.43171460682086 68.21776329641739
 314.7613 95.45560919119828 68.83704106054836
 314.7613 92.67405679500386 72.67538979936046
 314.7613 90.32818806350281 69.90885746181857
 314.7613 88.20156781572597 69.3370298459094
 314.7613 86.71624393556881 69.63036040253803
 314.7613 83.12003767431283 70.3209787494182
 314.7613 81.22228995044985 72.42420521199057
 314.7613 79.11849096932802 71.05668562770018
 314.7613 78.27835821950022 73.95674531751001
 314.7613 75.23933936150308 75.23673934685132
 314.7613 71.48035722937915 74.1143934160807
 314.7613 69.91838100304645 77.11608980085907
 314.7613 68.77447580046231 81.04701303996922
 314.7613 66.38678659601051 82.41535636397731
 314.7613 64.72897869766082 85.16368713062815
 314.7613 56.47668368342997 57.30890098470513
 314.7613 54.42253750052145 56.82030201657847
 314.7613 52.166793223478756 57.09643475988793
 314.7613 49.40359787259216 56.669062738262426
 314.7613 44.30073418287339 56.21948248516645
 314.7613 43.68955264320177 58.78144722306956
 314.7613 42.773224080773346 61.37275863666929
 314.7613 16.079046924457643 28.188831579502676
 314.7613 7.332377626685009 42.92631738679984
 314.7613 6.52865068562633 85.43924278043676
 314.7613 1.104736170321944 26.987283772182366
 314.7613 -12.960850649071062 58.54382795373681
 314.7613 -14.268229736537336 57.75254657395277
 314.7613 -17.890640474234583 57.617495940762296
 314.7613 -20.71042505890004 57.991361583317996
 314.7613 -22.927653108508764 57.12928108010408
 314.7613 -24.843859433311817 61.02327880345888
 314.7613 -36.06870202238801 78.48264710624812
 314.7613 -40.433841344398495 71.59721015938288
 314.7613 -41.34885798276581 73.5109031213263
 314.7613 -43.791399666521954 73.27118038025799
 314.7613 -47.15615186985835 70.91875208440416
 314.7613 -48.99470702197106 69.96534030418519
 314.7613 -50.017158883843166 69.0989122479574
 314.7613 -52.88410629176441 68.50986777837448
 314.7613 -54.730445319197756 69.2817225860814
 314.7613 -58.22540686130263 67.82891320297892
 314.7613 -59.564392493710564 67.89818909589502
 314.7613 -63.383883864548956 68.86069774775962
 314.7613 -66.90538355818073 66.58642423842923
 314.7613 -67.11289418364774 67.55467389463956
 314.7613 -70.23058045328558 67.81621102388829
 314.7613 -71.58457659435047 68.59740876419335
 314.7613 -76.18141388506429 68.57459631174379
 314.7613 -76.49565078271108 68.77008178629433
 314.7613 -78.69832667387797 67.38192446001415
 314.7613 -81.85441127554091 66.80741218800955
 314.7613 -84.3875350789336 65.33073757973654
 314.7613 -86.08049630063574 66.00446923373408
 314.7613 -90.11527211553405 64.95215961302671
 314.7613 -91.28701704932882 65.96266015437635
 314.7613 -93.63576365329405 62.7238191183792
 314.7613 -95.99168702702322 80.4717760924272
 314.7613 -97.92474079116667 70.05112589011378
 314.7613 -103.21287345852693 69.6104746634906
 314.7613 -106.36116306774889 63.37406323443986
 314.7613 -109.74252931431064 61.81041729075952
 314.7613 -111.38476812608124 61.40681399920771
 314.7613 -113.03107561893214 60.99670133994891
 314.7613 -117.55231136103063 60.59220496825856
 314.7613 -118.54906137905701 61.58215195837488
 314.7613 -123.445048008888 63.525997812688615
 314.7613 -148.79102949122202 -23.980997700361627
 314.7613 -150.31192910079238 17.279909425688004
 314.7613 -146.34335768408297 69.04713528272259
 314.7613 -155.13775741458957 42.19989483511222
 314.7613 -159.41266887854323 40.26490147451898
 316.55330000000004 181.89218704278076 48.33179490693573
 316.55330000000004 177.02825627600294 34.6445333360154
 316.55330000000004 176.78016600174345 33.235924562521404
 316.55330000000004 172.58218819984606 31.76647613953395
 316.55330000000004 172.3363847697821 32.35515947511237
 316.55330000000004 161.88169483171495 52.77988787000186
 316.55330000000004 161.52093061659727 100.90326434266996
 316.55330000000004 161.88169483171495 236.77988787000186
 316.55330000000004 145.4250873623805 60.91879578948715
 316.55330000000004 142.0548369259245 59.21099638851251
 316.55330000000004 140.08868892422277 59.80915752365581
 316.55330000000004 137.09491238937585 59.95592155636547
 316.55330000000004 136.98008286390595 58.48997904990733
 316.55330000000004 132.74747086932794 58.477756234149865
 316.55330000000004 130.01837821280415 59.257583336549544
 316.55330000000004 128.7717449645181 57.85900577929846
 316.55330000000004 124.37258814557768 59.074903123896206
 316.55330000000004 123.02536254103222 59.439676319956334
 316.55330000000004 120.56302023265526 60.097117794495546
 316.55330000000004 116.66534693072627 61.11317004106547
 316.55330000000004 114.44865550228822 62.67746884478811
 316.55330000000004 114.55931150084145 61.89953346661679
 316.55330000000004 110.03748296836785 62.770942020160135
 316.55330000000004 108.82946310101303 63.063511942639536
 316.55330000000004 106.41977944151107 66.38822095384916
 316.55330000000004 103.4737536366843 67.07467821112522
 316.55330000000004 100.86523086315545 70.1675611138005
 316.55330000000004 97.72562568020733 71.6124410063274
 316.55330000000004 96.86184895631166 70.30001685479255
 316.55330000000004 93.41649469180393 74.53266381252331
 316.55330000000004 90.41424568628887 68.15072957628507
 316.55330000000004 89.66544515686203 70.05191613092506
 316.55330000000004 86.35755652442906 69.70555728722667
 316.55330000000004 85.71884040244319 70.82908581042693
 316.55330000000004 82.32042506124387 71.471681056644
 316.55330000000004 79.99168308139768 71.89770894972725
 316.55330000000004 77.98535431515688 73.00538286068343
 316.55330000000004 74.93145325228124 76.033093415699
 316.55330000000004 73.9856947828587 78.44241416461989
 316.55330000000004 71.1539301664553 78.9077975395395
 316.55330000000004 68.2257312403356 76.37059713748312
 316.55330000000004 57.62551433537359 55.38800472200654
 316.55330000000004 52.66986272060274 57.51179469653198
 316.55330000000004 51.12508289447175 57.69501390063101
 316.55330000000004 50.09620170622765 56.31407521352156
 316.55330000000004 45.68045702835868 57.54803276574131
 316.55330000000004 45.78299898472563 58.53729250338711
 316.55330000000004 42.81202460047653 60.33885126726932
 316.55330000000004 41.175214140498845 59.746462902132066
 316.55330000000004 39.23355802537501 64.17555725229732
 316.55330000000004 24.579483526544863 6.500362898747142
 316.55330000000004 6.161692185889448 42.15289523191615
 316.55330000000004 6.464786333547619 83.39848005501847
 316.55330000000004 -1.818051134385267 15.44288617283894
 316.55330000000004 0.8080175183812729 50.44594665749446
 316.55330000000004 -0.10100203205651748 126.94668822904629
 316.55330000000004 -10.608112542122019 63.31688088945083
 316.55330000000004 -13.742577743207072 58.22885959616241
 316.55330000000004 -16.676591478939176 57.3759652206424
 316.55330000000004 -21.132312142282466 57.68183611442123
 316.55330000000004 -20.828333714460776 58.696530134716454
 316.55330000000004 -24.275159353681413 56.76748082523562
 316.55330000000004 -26.000106645837164 59.9176459096613
 316.55330000000004 -35.96816026936207 71.20745037801316
 316.55330000000004 -38.008353324496674 68.53416581191595
 316.55330000000004 -40.868490830655375 72.52532286339277
 316.55330000000004 -41.37972732105503 71.72710157165585
 316.55330000000004 -44.86036836020985 72.13307529302188
 316.55330000000004 -49.376437297591714 63.64595264195907
 316.55330000000004 -49.58204665611583 68.1226821296267
 316.55330000000004 -51.63981307280826 67.88455837222347
 316.55330000000004 -55.042036858602394 68.97004131164982
 316.55330000000004 -57.72896584400012 66.87439906984474
 316.55330000000004 -59.074641831635496 67.69525014812643
 316.55330000000004 -60.21447864651575 68.54035612266551
 316.55330000000004 -64.26483343131933 66.9666516511295
 316.55330000000004 -66.45193356433622 68.39179592803316
 316.55330000000004 -66.86902936680742 66.5786474645625
 316.55330000000004 -69.79336225531426 67.12517000538139
 316.55330000000004 -72.4114842535115 66.70328503611847
 316.55330000000004 -76.08865772161482 65.83550916756752
 316.55330000000004 -77.98535431515694 66.50538286068337
 316.55330000000004 -78.40737180917692 66.68087051888824
 316.55330000000004 -82.63845834077557 65.6625944458927
 316.55330000000004 -82.63845834077557 65.9125944458927
 316.55330000000004 -85.29329855343082 65.4109029914876
 316.55330000000004 -88.70371725253989 65.49435083004516
 316.55330000000004 -92.12842205789805 65.8001651281482
 316.55330000000004 -94.38394395830817 64.57945234896152
 316.55330000000004 -98.37411068108874 67.97059438962759
 316.55330000000004 -98.37411068108874 61.97059438962759
 316.55330000000004 -104.3453713952403 70.12344028462945
 316.55330000000004 -105.1089160724195 62.94586936666417
 316.55330000000004 -108.61005253064553 62.11633198153754
 316.55330000000004 -110.80734328200833 60.582941715950085
 316.55330000000004 -114.66998616906672 59.62156873079715
 316.55330000000004 -117.22070526897524 59.97025024674815
 316.55330000000004 -119.67001525854258 60.332579859140765
 316.55330000000004 -120.33965043070316 64.65616309203648
 316.55330000000004 -151.52128788137588 -6.5199317327683275
 316.55330000000004 -147.8786853236311 33.64674829587574
 316.55330000000004 -146.70891731001382 97.26621940972859
 316.55330000000004 -159.1223759490592 41.217644331621614
 318.3453 168.76124329020703 -140.7482359493187
 318.3453 190.93282768432516 28.26426886083982
 318.3453 190.1638796893089 19.313598594024995
 318.3453 182.04019147813156 31.416895042261444
 318.3453 178.65471521879158 32.67790876686365
 318.3453 174.9209966038139 34.04627166636715
 318.3453 171.70825635786292 28.204723467076406
 318.3453 161.2278062707853 42.35953384160047
 318.3453 160.7456090698142 85.52304710444469
 318.3453 161.83119365405807 139.40434413995433
 318.3453 148.00968259105136 59.69052690314504
 318.3453 142.39313449915565 57.434096377894605
 318.3453 139.60600830997802 56.527471000626065
 318.3453 137.0631344091922 61.78417075340565
 318.3453 136.37157857269182 57.48784375775335
 318.3453 131.78212023827345 57.066400314515306
 318.3453 130.75440887101348 56.608369489589506
 318.3453 127.22795300675284 56.59471193646857
 318.3453 125.52893607553564 57.061304122585625
 318.3453 123.27084427128807 59.42270381830036
 318.3453 120.79633537359416 58.581201738740845
 318.3453 116.4331792650548 59.46278723003496
 318.3453 116.32168914258378 61.49120615557598
 318.3453 111.10270492158268 64.04366160656906
 318.3453 111.21332551457185 62.76662330206932
 318.3453 108.67356798707816 68.63116091233906
 318.3453 103.95002216731042 67.73922490790449
 318.3453 103.40280326092424 72.61464471221308
 318.3453 99.03975166129446 72.59258622907589
 318.3453 99.14851513157849 71.81868555486733
 318.3453 96.75933215158577 74.08805587571464
 318.3453 94.81008624145085 72.75299604316086
 318.3453 89.74304342018985 70.79443021785823
 318.3453 87.16777396155209 68.80301147907738
 318.3453 85.88310920779584 72.30146755166135
 318.3453 84.49357424420552 70.06626071776111
 318.3453 81.40183057305936 72.3906725153193
 318.3453 79.3820179042614 73.7548930384454
 318.3453 75.3556382607082 78.20478615559762
 318.3453 75.14419873633162 76.49057393814945
 318.3453 71.55673071491992 78.83302671323901
 318.3453 69.03212221671821 80.2331949212329
 318.3453 66.40882342041219 81.38427656240731
 318.3453 66.51363129330619 78.86854086517224
 318.3453 56.184436622467835 53.053210103722904
 318.3453 53.486266204529194 56.63910298333036
 318.3453 48.622537919763786 56.953625599344264
 318.3453 49.24249948474368 57.13460540743756
 318.3453 44.49605977687253 59.891089758155886
 318.3453 42.23114056772903 60.36495279100353
 318.3453 42.33402335703254 62.85503411864153
 318.3453 17.279927465224265 15.81228706089729
 318.3453 16.26212948313705 20.101417155877357
 318.3453 14.73588214850311 22.405652450765217
 318.3453 9.651670392030262 49.04783587955757
 318.3453 5.993371362812177 82.3634889096063
 318.3453 1.218889944105379 27.402995379669107
 318.3453 -12.80333804735612 54.96667394800909
 318.3453 -14.430693595263772 58.16585763513166
 318.3453 -19.11262316523654 58.48585356212703
 318.3453 -19.01078333159076 58.74030234515345
 318.3453 -24.00456878956526 58.24425388288239
 318.3453 -39.45565817717065 65.87353085925747
 318.3453 -39.250242810321936 71.89197801582628
 318.3453 -43.054382358503354 71.53491879040354
 318.3453 -45.83593740092975 70.25323045525874
 318.3453 -46.14530474811577 66.72082726306854
 318.3453 -48.0028411464774 70.27175695669376
 318.3453 -52.96802544389563 67.4517650304258
 318.3453 -54.83464728374449 66.47326632693807
 318.3453 -56.70396900348065 67.23667799787432
 318.3453 -58.88838499168559 65.95039478257428
 318.3453 -60.97245993420991 68.41742597315061
 318.3453 -64.00102073468717 67.98915036426126
 318.3453 -66.19923823230377 67.6656712303706
 318.3453 -67.66719542854891 66.69375833404564
 318.3453 -69.87296687557058 66.35145677684216
 318.3453 -72.71595292705855 64.89463831948007
 318.3453 -74.82712664418388 64.54405974204968
 318.3453 -77.89659319132889 65.7671633487908
 318.3453 -79.9131104947158 65.40997183557425
 318.3453 -82.46672148637647 64.94513118046223
 318.3453 -85.77614169866969 64.32199731007705
 318.3453 -87.4892465949697 64.99029100393273
 318.3453 -90.06551878724726 64.47975916527679
 318.3453 -98.9310039636434 66.11645894117771
 318.3453 -103.95002216731022 66.98922490790449
 318.3453 -106.69241674711651 60.851446733221565
 318.3453 -110.88151770182208 60.84765091894366
 318.3453 -110.88151770182208 60.09765091894366
 318.3453 -114.76281154648284 59.88596414345068
 318.3453 -116.76776378122135 59.377352488737756
 318.3453 -151.19462071546016 -25.07405816794875
 318.3453 -150.95805084153966 12.25194152356545
 318.3453 -147.30446015073827 66.66266011716715
 318.3453 -146.48285307668684 136.17029500150642
 318.3453 -156.0676969684644 41.58780527669995
 318.3453 -160.2638656669146 39.185994103624296
 320.1373 169.9575103426726 -134.55252871063948
 320.1373 191.2343326609822 30.551550571580492
 320.1373 182.05362943445354 49.80100891428191
 320.1373 180.9184928681963 31.724057314665743
 320.1373 175.40720408938412 33.99737862560829
 320.1373 172.17965248067267 33.15844214622956
 320.1373 171.31430137738906 32.216715430313286
 320.1373 159.8360949007246 19.682848122704684
 320.1373 161.77164845787317 54.280228730348654
 320.1373 162.7421588827832 108.20050528855245
 320.1373 163.10657431514898 249.07626948224856
 320.1373 141.09126999142828 56.15346552053478
 320.1373 138.76324692494876 60.59978961956017
 320.1373 138.64709385772105 59.884265054468415
 320.1373 135.86639876356858 56.95200630966821
 320.1373 130.45872248107077 57.250220708122754
 320.1373 127.1462047900461 54.92088515475348
 320.1373 126.34931016560132 57.88920406937018
 320.1373 123.39833407653978 55.93690585914959
 320.1373 121.47631096296041 58.19731500793574
 320.1373 119.78520431095387 61.390403274261246
 320.1373 117.42506210695763 65.74935465324216
 320.1373 112.39584593892879 66.76005390333438
 320.1373 112.39584593892879 67.01005390333438
 320.1373 109.06365615490112 67.8174540807201
 320.1373 105.19608044423144 68.47645028307898
 320.1373 104.20493837078617 70.70450524567718
 320.1373 101.02038572724099 71.42366175645964
 320.1373 98.61358709267861 71.95336910308993
 320.1373 97.95851377281939 73.09547566191156
 320.1373 94.3655149646116 71.10911378780787
 320.1373 91.43791107388601 73.461481082592
 320.1373 89.06024083093388 72.18750663394644
 320.1373 88.19732349457945 72.35733332622357
 320.1373 83.89583815056623 74.93046621602247
 320.1373 81.96708107080298 75.2868313092942
 320.1373 78.01529622649244 75.9922346084573
 320.1373 77.37605207617551 76.10320509953027
 320.1373 75.77982326913518 77.37647889549623
 320.1373 73.65561437600238 77.73165017328677
 320.1373 70.47779164591658 78.24481788532051
 320.1373 68.78697713111056 82.25894943676025
 320.1373 49.831517471508846 58.79197240436815
 320.1373 45.0573734106537 60.80472513678933
 320.1373 43.814374132590444 61.92988386894376
 320.1373 40.81433263564464 61.217722974860806
 320.1373 21.06415102558231 -0.6431327624865162
 320.1373 11.546104379091492 24.460634802999266
 320.1373 0.10214557181071213 35.86268809577621
 320.1373 0.7150198534862227 144.86211669216647
 320.1373 -13.386765034351471 59.4083029303722
 320.1373 -16.660702659535882 58.54615608196087
 320.1373 -18.605774031982666 58.467979362937626
 320.1373 -20.142058917454804 57.65015275647511
 320.1373 -22.294005124741062 56.796129360938494
 320.1373 -37.922647206382415 73.97606967327698
 320.1373 -40.194292224638566 72.77469852849413
 320.1373 -43.19323295527731 70.74113296465248
 320.1373 -47.23499467716316 69.32714352595025
 320.1373 -47.027468916960686 65.59928780518595
 320.1373 -52.01622953841377 66.79041985261972
 320.1373 -53.474627000589024 67.61660454843604
 320.1373 -55.03896212489861 67.4249294032025
 320.1373 -58.69649197196144 66.95569247185529
 320.1373 -61.00107401446998 66.39490524346479
 320.1373 -61.84021210759742 67.5288465554043
 320.1373 -65.51866618439333 66.00190281926933
 320.1373 -67.62611703972264 67.6867011399246
 320.1373 -68.8925729793753 66.49263528016706
 320.1373 -72.17138480499678 65.97404520216156
 320.1373 -73.97395209270269 64.6790424188647
 320.1373 -77.90872537090293 65.01079572170647
 320.1373 -79.18837866733641 64.78631641178765
 320.1373 -80.89734475721568 64.48107015264583
 320.1373 -85.07660641529465 63.708408440506616
 320.1373 -87.33529228830699 64.27542101102114
 320.1373 -89.60001841558268 63.83047994711643
 320.1373 -91.22147404378708 63.50530331825905
 320.1373 -92.84616362693284 67.67395911644678
 320.1373 -97.08595369356219 65.03338479067503
 320.1373 -104.09489523780667 65.97970185851761
 320.1373 -108.06711308235451 61.30457080521683
 320.1373 -110.17259865070679 59.30123550628275
 320.1373 -111.50568171404925 58.977929551757654
 320.1373 -115.52067610535221 61.2326666765988
 320.1373 -117.20073100837861 59.30666159735375
 320.1373 -152.04571152886967 -25.75807356643884
 320.1373 -151.2135156918039 6.0088257237169955
 320.1373 -148.6063453775767 53.33681858828146
 320.1373 -144.48398288349614 128.37055634316215
 320.1373 -151.45115475077455 66.43273926076506
 320.1373 -155.50723215110776 41.36830172061781
 320.1373 -157.30658115112337 41.27570361194307
 321.9293 192.17531121063772 26.589809211594797
 321.9293 188.30767695701172 20.830113244333972
 321.9293 179.90854512436403 33.232473293307976
 321.9293 179.0262860336291 33.05682947147437
 321.9293 175.88834325720742 32.199902108444405
 321.9293 170.16621970371017 28.991425072021286
 321.9293 165.7331701770846 15.034428477064239
 321.9293 163.28692925932538 102.37127402780095
 321.9293 163.16492204958183 248.16273806026106
 321.9293 143.52550382515736 55.74058153634252
 321.9293 140.24130384524915 59.4800740296111
 321.9293 136.3945050939591 60.613442773429256
 321.9293 135.34975186136492 59.16644644173118
 321.9293 132.68815117440187 59.929033694263694
 321.9293 130.15325810883638 55.89277867057268
 321.9293 127.39987409220402 57.654092438750524
 321.9293 123.17879414038995 57.792799745891784
 321.9293 120.45571376463276 58.508996773573756
 321.9293 118.0823604326937 61.62135681774657
 321.9293 118.19518276326019 63.842497927097156
 321.9293 113.24896231179139 66.83404439503062
 321.9293 113.24896231179139 67.83404439503062
 321.9293 108.78330586888003 67.1630992762419
 321.9293 105.78492584324015 69.61511703296185
 321.9293 103.35096976184161 70.17160335251583
 321.9293 103.13010097191075 70.47150582470476
 321.9293 99.16558633822133 71.10030305122007
 321.9293 96.09625480908137 71.75852995466306
 321.9293 94.2385825984143 72.14747307307988
 321.9293 92.60303784922644 72.48399197621956
 321.9293 89.55876428186895 72.0955469869076
 321.9293 87.17459678218565 73.56097927139183
 321.9293 83.61068110634464 74.23446377817214
 321.9293 82.21065281808202 74.49170446116972
 321.9293 79.63164339959945 74.9547056591822
 321.9293 77.59499473373984 75.3103530346014
 321.9293 74.49475807580784 76.58474210400442
 321.9293 73.32136275410821 78.02784982167401
 321.9293 70.97865748200944 79.40454914611041
 321.9293 69.27820592742293 80.42057581512523
 321.9293 59.65665264534669 68.80781078065621
 321.9293 55.97681147681636 66.53499748835509
 321.9293 54.822476759312025 63.92856577303286
 321.9293 50.633226430645315 58.42495625630562
 321.9293 48.021241605881464 59.71484410986045
 321.9293 47.18637681849369 61.55431551265741
 321.9293 43.01873041371383 61.72782370147627
 321.9293 40.41928372568073 63.47241013461763
 321.9293 39.27674605307469 63.82514730933724
 321.9293 36.786387926634625 64.03897740035262
 321.9293 22.41879800949241 1.2509579261034673
 321.9293 15.210426297002146 20.808312224090002
 321.9293 13.358851222892616 23.86828649196775
 321.9293 13.564548316522428 49.612007085199366
 321.9293 10.685468484752397 49.691179785161864
 321.9293 -0.616304584860496 27.07026904861374
 321.9293 -0.821740016863701 56.56993386353747
 321.9293 -11.610734833110337 68.91778360311395
 321.9293 -15.621983975487243 56.79392713886995
 321.9293 -17.26859695388075 56.732538745472766
 321.9293 -20.151793206082317 59.11027942790611
 321.9293 -20.769916030505193 58.3316227172175
 321.9293 -22.7280568392426 58.23514512480813
 321.9293 -37.61614293582652 71.96927188783667
 321.9293 -39.89985848076231 76.51947807317765
 321.9293 -41.042794873825 71.91511565472331
 321.9293 -42.602553218145985 72.51799450157188
 321.9293 -47.60375166308971 67.50977903618946
 321.9293 -48.856570953514016 66.37377781505847
 321.9293 -50.005922680916164 68.24595343314382
 321.9293 -52.93572866847321 66.90691645838206
 321.9293 -56.816973119331024 65.42866375424563
 321.9293 -57.76281659952471 66.3071016124772
 321.9293 -61.026250307766425 67.12263972135582
 321.9293 -63.98154863059381 66.45914092819845
 321.9293 -64.61581279743062 68.11791835346872
 321.9293 -67.79255040212041 65.89789023706282
 321.9293 -70.12808634795837 65.53839581225606
 321.9293 -74.0679089163817 64.90533101931914
 321.9293 -75.77641541635435 63.620447364212964
 321.9293 -76.63178991412846 63.47547308283572
 321.9293 -79.20250820179088 63.03037684883628
 321.9293 -83.17967016404486 63.064098905105425
 321.9293 -86.09308201159453 61.76818089314406
 321.9293 -86.41739411426116 62.956305594382115
 321.9293 -89.01631708924171 62.20248797062817
 321.9293 -93.25685775592653 63.100132249551905
 321.9293 -96.53399001306148 64.91584274275209
 321.9293 -103.0196913211687 68.24641423853433
 321.9293 -104.67757664439738 64.11978620898367
 321.9293 -107.89358297015065 59.87330494847356
 321.9293 -109.78558570506789 61.17439317938977
 321.9293 -112.9130354414853 60.41660298356277
 321.9293 -115.82993583465431 57.94224572503941
 321.9293 -118.0823604326935 61.62135681774669
 321.9293 -120.56894621844305 62.229504612914866
 321.9293 -149.0816416357755 -9.478801848858268
 321.9293 -148.25060592188728 31.281969798742693
 321.9293 -146.1193657080432 91.94495608275707
 321.9293 -144.8209388987622 156.84477949946785
 321.9293 -158.79163990643067 39.631689678064845
 321.9293 -161.4598346789802 42.48947524777316
 323.7213 175.9875101210391 -142.21030071584727
 323.7213 190.38985477350656 32.680593828856104
 323.7213 182.1801928190922 48.27729863348162
 323.7213 179.76964376334837 33.41555052013916
 323.7213 176.86741509415083 32.97214557798361
 323.7213 174.6079491951056 30.28495205332854
 323.7213 171.8602180779729 34.761771628936856
 323.7213 161.8697439947976 30.704178724614906
 323.7213 161.2593255717625 70.15888399937609
 323.7213 163.2151751893083 127.2506782281356
 323.7213 147.6461856221157 58.30182494371746
 323.7213 139.84705721865487 59.4169965576321
 323.7213 139.49505183962933 59.0210906125734
 323.7213 135.98655282386096 59.04595234843475
 323.7213 134.00756750701262 59.61382819578398
 323.7213 129.83802827205747 60.78601082073732
 323.7213 128.33929210814034 57.449254381476464
 323.7213 125.12339449260104 59.32141397550009
 323.7213 122.49389330289159 61.01970134201878
 323.7213 120.44346294600902 63.30488929517975
 323.7213 119.0800680846504 64.65620976893831
 323.7213 115.4579480126619 64.57184137645493
 323.7213 112.30438369617283 65.34793414471795
 323.7213 109.61268630074782 66.99472216661115
 323.7213 107.82389342861488 67.41654115285456
 323.7213 104.9265339001511 68.08613359906963
 323.7213 103.92626669136376 71.31336774987801
 323.7213 98.6138890124257 72.23616687737672
 323.7213 96.4111748192751 72.70556093646394
 323.7213 94.7631559752904 70.30023602987495
 323.7213 92.35213914236493 70.79440286945345
 323.7213 91.36785585818949 70.99268873977724
 323.7213 86.68100616597981 71.90925280141454
 323.7213 84.40129022777069 72.33850060246874
 323.7213 83.53436490361604 72.49887418717731
 323.7213 80.07490813186234 73.87309490657674
 323.7213 77.59632841007162 73.55478351854356
 323.7213 76.19822025495121 76.79254242258969
 323.7213 73.40794344758233 78.00461707975438
 323.7213 70.83910789781889 78.4153252594914
 323.7213 68.16991353843827 73.32709610401815
 323.7213 67.10408296508568 71.4872407399306
 323.7213 64.12517875095033 88.42184105427094
 323.7213 59.141977590236955 67.10590799838133
 323.7213 57.02760633038667 61.87984532378596
 323.7213 54.81124856177912 61.156523775764526
 323.7213 52.17750065915792 62.471333221078794
 323.7213 49.12852810419502 61.81676556064298
 323.7213 44.82848069487321 61.269149704305676
 323.7213 43.04893169576851 60.6944207482598
 323.7213 42.94431149154071 63.45450692044864
 323.7213 40.64427522672278 63.67012174074125
 323.7213 38.242853680970825 64.13271872189637
 323.7213 14.05376324423747 21.055926840715927
 323.7213 11.158450409026353 23.638243909863263
 323.7213 12.709327338921423 47.59649934421043
 323.7213 7.024464632290779 36.72303065327253
 323.7213 5.784639814373084 50.990946751531
 323.7213 0.20657823849329468 17.778651850019855
 323.7213 -15.708942805528721 59.250386499458955
 323.7213 -16.536753321156084 59.22029552043938
 323.7213 -19.746080571705647 58.33906322524331
 323.7213 -22.33628754493816 55.71626559378359
 323.7213 -25.136058794969603 58.06659511385351
 323.7213 -25.447307849368446 59.79887050642742
 323.7213 -27.52319642810928 62.175103664034054
 323.7213 -38.4515494731603 70.3647511340875
 323.7213 -39.077776038522025 72.81025552052472
 323.7213 -41.48030059436731 67.3431055639021
 323.7213 -45.03796632199084 72.99805643270508
 323.7213 -53.23039220414363 66.0973054484287
 323.7213 -55.549619005529024 65.8155417897961
 323.7213 -55.97173028884933 67.51299384708165
 323.7213 -58.71881929604368 65.4115118689445
 323.7213 -62.42642562458571 64.911087962404
 323.7213 -62.21425459411726 65.94053028796014
 323.7213 -65.50726188399737 65.47258741922963
 323.7213 -69.98423726268396 66.29886912378936
 323.7213 -71.15986383769125 64.6148140897813
 323.7213 -73.72950169037564 63.20221266121814
 323.7213 -74.48020345676107 63.32901186535156
 323.7213 -78.3499951827339 62.42489583380461
 323.7213 -80.0749081318622 62.12309490657674
 323.7213 -83.10121553366609 62.57841147948949
 323.7213 -84.50971499608977 62.31833196936242
 323.7213 -89.4027699505756 62.13254831811673
 323.7213 -89.2937328990854 61.65394553903161
 323.7213 -93.00898202448954 64.1609649730396
 323.7213 -95.4219554532181 68.41312167384774
 323.7213 -104.37066279941618 66.46266247718177
 323.7213 -106.37377124224888 64.00378378284472
 323.7213 -109.50075511077704 64.27130485179634
 323.7213 -110.28464522321394 64.08461118932723
 323.7213 -114.55544864623948 63.04595881603524
 323.7213 -116.58776271889444 64.28900769896325
 323.7213 -150.98777587582745 -25.245656835947386
 323.7213 -147.8842061616034 15.977885083980595
 323.7213 -146.1015094717895 77.02915477556564
 323.7213 -145.15304014157127 144.57008136640877
 323.7213 -156.0386040893165 41.882794491658785
 323.7213 -160.6496154873829 39.61269795403393
 325.5126 167.20612379369481 -140.50255790873638
 325.5126 184.59710555870407 45.76598269123377
 325.5126 180.12851287329724 33.665425463396446
 325.5126 176.83506257808003 34.10993527501722
 325.5126 172.56077310589427 31.883079617395936
 325.5126 171.31048835845849 35.572779149501855
 325.5126 167.57789716743787 73.36958628209118
 325.5126 160.68143672618888 35.2023429352501
 325.5126 161.66112423892542 71.87600901382069
 325.5126 163.87208354980615 139.63337160704242
 325.5126 162.02897451841687 213.75304399986658
 325.5126 145.59900659117585 54.51088799055316
 325.5126 144.5286463975253 58.836523003738534
 325.5126 140.97506289979586 56.90252671890829
 325.5126 139.6774941727561 57.2859567683862
 325.5126 134.74909349147924 57.713713345284816
 325.5126 134.28182478966616 58.096719424468745
 325.5126 129.5127666998799 57.43062408443757
 325.5126 127.54603992276202 58.96813100327131
 325.5126 124.43490267232117 60.55327792749296
 325.5126 121.68199791206308 61.27670851104875
 325.5126 118.94058266038233 61.98251173438888
 325.5126 117.46033852603594 62.35752186587757
 325.5126 113.37792993666345 64.3694958101085
 325.5126 110.21922410030112 65.1299157600418
 325.5126 109.65664856555085 65.26327064527715
 325.5126 108.19601216861547 67.60656060346224
 325.5126 103.71998506370325 71.38195583117312
 325.5126 102.60517215575821 72.38107599840424
 325.5126 98.9377942219542 72.43285599645776
 325.5126 96.17090554539294 70.26966482724504
 325.5126 93.41352748841668 72.33887808134597
 325.5126 90.55561644801607 70.16234720831704
 325.5126 87.92609102617753 73.67508148149278
 325.5126 87.59796360592765 70.73805740028632
 325.5126 84.86832168719276 72.50326379886388
 325.5126 81.06067107811423 76.94595124864554
 325.5126 80.84356485149449 75.98453152586103
 325.5126 77.59292149168793 70.05031976906685
 325.5126 74.67660629153538 70.53893391991278
 325.5126 70.80120584209656 70.91031586681487
 325.5126 69.94195231885925 76.043756708226
 325.5126 68.11831261205852 73.32173947510773
 325.5126 65.86974392707847 70.90469297065312
 325.5126 60.64011289480484 65.1370236115713
 325.5126 57.555614378308206 62.79127053213966
 325.5126 55.96309977805546 62.24190714375641
 325.5126 52.889613672776946 61.61353440013977
 325.5126 49.82287138331581 60.963813768563625
 325.5126 48.97800620220581 61.05670085307116
 325.5126 46.44622064752312 62.325688384473324
 325.5126 42.97156353937075 62.6719384506664
 325.5126 17.460808608628867 27.89547477237886
 325.5126 17.044513403300524 18.411576510098598
 325.5126 12.88363249261202 22.301198602159218
 325.5126 4.881718138822006 44.21066020704461
 325.5126 6.647756974504935 81.6878153023747
 325.5126 -0.10386065809454632 55.23738789589703
 325.5126 -10.804405279947604 65.6064381338868
 325.5126 -14.547560838069835 60.00001541585016
 325.5126 -15.067649220682156 59.23274533641603
 325.5126 -20.16778702664837 59.78131811045188
 325.5126 -20.79275314592158 57.25263505274165
 325.5126 -23.39801903012102 59.62366706112067
 325.5126 -26.318520601774015 56.96108878510012
 325.5126 -27.466685081750565 56.391966687579384
 325.5126 -39.08409077515716 73.02781167426741
 325.5126 -41.394539375653494 70.82032282903077
 325.5126 -44.12897046460095 75.30955150386279
 325.5126 -46.0246551347926 69.61911174861149
 325.5126 -50.6682189613528 65.61931067224623
 325.5126 -50.034162722682 70.94033958458044
 325.5126 -53.31313268610581 67.81354727486053
 325.5126 -56.17532327159749 66.71548779137726
 325.5126 -58.405757458654584 68.18191010989568
 325.5126 -60.53362378251569 67.90132298828433
 325.5126 -63.41212590172247 66.50618319895563
 325.5126 -66.08369907625566 70.87347870723028
 325.5126 -67.68966325250163 65.88604707826102
 325.5126 -70.37149248564472 63.977246679611085
 325.5126 -72.95241001168898 65.06933542975537
 325.5126 -75.43186636864858 64.6641213408447
 325.5126 -76.94410667982402 64.41058141295042
 325.5126 -80.30101887658131 63.08051023900339
 325.5126 -82.69058482127762 63.403153361265254
 325.5126 -84.2144508900006 63.124372921831934
 325.5126 -88.80170497010738 63.25593537332924
 325.5126 -91.87343655429687 64.15000493534285
 325.5126 -93.74392078793034 61.271496788681645
 325.5126 -96.39190259520939 62.4733695551177
 325.5126 -98.16208900332761 66.84894451256946
 325.5126 -103.27386217790239 63.98194907154107
 325.5126 -107.41073598434957 64.78936155055459
 325.5126 -109.20690618593247 62.619425854156646
 325.5126 -112.13531905112974 63.67099879737094
 325.5126 -115.41609773627378 60.86835944259235
 325.5126 -115.98332786211391 62.72743612690476
 325.5126 -120.08146239747333 65.44055829968931
 325.5126 -120.42410822677552 66.35237944148025
 325.5126 -152.18447662820194 -24.788486554571136
 325.5126 -147.98481021491432 16.527524733565542
 325.5126 -146.19451870631707 73.8288081442272
 325.5126 -146.7906545463313 141.39588898947505
 325.5126 -158.1182931708073 40.548144657504054
 325.5126 -161.04860762129786 40.58023543343694
 327.3046 166.50982584011712 -137.90638938725277
 327.3046 182.52787982530126 35.66704050898119
 327.3046 179.9713394385228 32.60182353535299
 327.3046 174.89722681114918 33.175029528565915
 327.3046 170.49871420152044 29.720510718089827
 327.3046 162.42786043813533 46.72039323259196
 327.3046 162.55109511758312 93.92925121751045
 327.3046 163.291103397685 173.43164304607717
 327.3046 163.167697090072 243.47300117762438
 327.3046 141.75115363396844 56.741698467959736
 327.3046 138.31762886575976 55.999546219199715
 327.3046 138.7900421228932 55.86217258592791
 327.3046 134.43427465008443 57.11304213519816
 327.3046 130.1092571611538 58.069887017926646
 327.3046 129.75989120190124 58.415831382202555
 327.3046 125.58242543463 59.54508184898731
 327.3046 124.19594770496089 59.91250397796949
 327.3046 120.62772591858175 60.841087662087034
 327.3046 119.70999781079556 61.075936064429754
 327.3046 116.50772662796855 61.882580223705645
 327.3046 114.3432399417134 65.41646643828096
 327.3046 111.73200515472796 66.04829918942977
 327.3046 107.3259268601119 66.83386248736406
 327.3046 104.96434909843003 72.1230047842206
 327.3046 104.73982598042059 71.4236824320675
 327.3046 102.05072617295113 71.02278600365042
 327.3046 98.70248732736775 70.74837807847916
 327.3046 97.25599136263466 71.30482672181017
 327.3046 93.92778420615738 70.7437613931495
 327.3046 90.83349530159671 72.36396168534895
 327.3046 88.63016361031619 74.79359123581236
 327.3046 86.32264191660437 72.23279497517706
 327.3046 83.25517200973228 75.79955575884327
 327.3046 80.0888634946099 69.61402506338442
 327.3046 78.67290494242216 69.85966911065861
 327.3046 75.19616653428012 71.19496201746017
 327.3046 73.35402493762732 68.99475551822542
 327.3046 70.21904504699502 72.9884415466824
 327.3046 69.67946094194293 69.57131042034257
 327.3046 65.26476930382984 70.97603034021034
 327.3046 65.47972077987454 70.19511511233065
 327.3046 61.18812523423188 64.29361647688341
 327.3046 58.62040666753319 60.88279576539753
 327.3046 54.77839313608976 61.36374518458348
 327.3046 53.81960417254103 59.72879030782269
 327.3046 51.69131155035082 60.727041193522155
 327.3046 47.01990336322586 61.23739958212184
 327.3046 44.90116417002026 61.453189704642796
 327.3046 43.52544416790256 62.58804967495456
 327.3046 41.622423072202174 64.76776900625902
 327.3046 39.932555552424674 67.4207015640506
 327.3046 35.39846823045652 42.80002689259783
 327.3046 20.27881398643954 2.236807305198681
 327.3046 15.9874397534851 20.910288391562347
 327.3046 7.938000972670907 41.875089235051746
 327.3046 7.102219059067416 42.139114444298514
 327.3046 7.3111578859094575 76.88575432914166
 327.3046 0.8354607285622204 53.94462107124639
 327.3046 -10.34132281568638 64.82607836192278
 327.3046 -13.581905890418756 65.48960676440112
 327.3046 -15.150599089300028 57.93934342092297
 327.3046 -19.650516216348972 58.764765824438314
 327.3046 -20.802478497130046 58.71283446676205
 327.3046 -21.850042229238817 58.16304946653918
 327.3046 -38.24422510518155 74.06723261144492
 327.3046 -40.98853840847452 73.07586981527305
 327.3046 -42.2565332407886 74.70876591611471
 327.3046 -46.06612719362806 73.33575371881619
 327.3046 -47.65607286317925 73.42069347540627
 327.3046 -50.30960895609675 71.13294131039868
 327.3046 -52.96790279513608 67.82931500945415
 327.3046 -57.44526765386694 66.53328598675046
 327.3046 -59.47573011551935 66.27138951712874
 327.3046 -60.11760273421258 68.93675046857936
 327.3046 -62.68842860184397 69.58887492974355
 327.3046 -66.66267435804782 70.77321115210913
 327.3046 -68.70888262577468 67.7188130229776
 327.3046 -69.35583910639104 68.62071514040423
 327.3046 -73.57057611327865 65.7098853828407
 327.3046 -74.65401565894696 64.78393663748835
 327.3046 -77.47639760557416 63.563964037613914
 327.3046 -81.17949011966482 61.921958941621426
 327.3046 -83.0364609187166 63.33921867499032
 327.3046 -85.99348574392596 65.79454702576555
 327.3046 -89.40068995858873 63.89448295855402
 327.3046 -89.29057285204631 63.16586723522647
 327.3046 -93.48504191443418 62.333704651552125
 327.3046 -97.14483078730224 58.828200953325734
 327.3046 -100.37481175086127 63.638801974286025
 327.3046 -100.70970527216906 67.31611502193027
 327.3046 -103.84240164771953 63.125233395208454
 327.3046 -107.10069056749882 63.13576360614445
 327.3046 -108.90451855510422 62.717273823516564
 327.3046 -111.05239286926523 62.210538000011695
 327.3046 -114.79836069584586 62.3049699822098
 327.3046 -116.16551497913046 61.967599673222196
 327.3046 -120.39817600021757 59.14998302842122
 327.3046 -150.60536980795305 -17.20697042692302
 327.3046 -145.92196988373422 39.988258038395315
 327.3046 -145.92196988373422 82.73825803839532
 327.3046 -156.78942630228588 39.82435702573446
 329.09659999999997 191.32028143315253 29.266818840761744
 329.09659999999997 189.88220512457085 22.312100384945836
 329.09659999999997 180.44416447528494 32.30789478576247
 329.09659999999997 175.7279019980049 33.00002213727447
 329.09659999999997 173.70191970761599 30.96553111814893
 329.09659999999997 171.4321984722857 32.258922507007014
 329.09659999999997 167.79617366726717 22.01171711144474
 329.09659999999997 168.29619331516986 63.34077056343716
 329.09659999999997 159.9823447131588 26.877172627974176
 329.09659999999997 163.44106599624084 66.98249342120022
 329.09659999999997 163.56500407852965 126.9410899829378
 329.09659999999997 163.1932758739285 199.06519180724428
 329.09659999999997 146.48044435429108 54.64369336543598
 329.09659999999997 145.63964812061465 56.898572262236996
 329.09659999999997 142.16917777935765 56.18699155516936
 329.09659999999997 139.90641698798365 53.85217078354566
 329.09659999999997 137.17864790566142 55.64149848996385
 329.09659999999997 132.81589622803935 55.87519956776913
 329.09659999999997 130.70449366352463 56.45946902600804
 329.09659999999997 128.0167948221212 57.19105089114748
 329.09659999999997 124.99198224445207 57.998002688512656
 329.09659999999997 123.25324307564588 58.45395693338446
 329.09659999999997 120.25015730743074 59.227797852517824
 329.09659999999997 118.52366931800579 62.66480812693709
 329.09659999999997 113.14178776960733 64.4899083799856
 329.09659999999997 112.57166293848455 65.87696674778942
 329.09659999999997 109.95490004646645 68.49784231963946
 329.09659999999997 108.2533727977852 69.89431551205632
 329.09659999999997 104.74919217129735 69.69274073760806
 329.09659999999997 101.48565835537654 72.16431464004552
 329.09659999999997 98.34754864239416 69.83799924483401
 329.09659999999997 96.33667119444334 72.25924647723014
 329.09659999999997 94.7760719615069 72.83052152225775
 329.09659999999997 91.9965414151793 71.3904664380521
 329.09659999999997 87.67841408868931 73.97904036316413
 329.09659999999997 84.81132400028125 72.51464812348883
 329.09659999999997 83.27123086798103 74.04534513977302
 329.09659999999997 80.30818285418148 66.82155137477628
 329.09659999999997 79.97952285550224 70.87879306506682
 329.09659999999997 76.26239584451288 70.51049997837089
 329.09659999999997 74.30006747018983 72.58232224892413
 329.09659999999997 71.7980385716604 67.48091681592479
 329.09659999999997 67.89347351212305 67.82655447888175
 329.09659999999997 67.89347351212305 68.82655447888175
 329.09659999999997 65.83822371456453 72.12710719640557
 329.09659999999997 62.70823816690657 63.06756686255068
 329.09659999999997 60.01645340856218 60.92964189894428
 329.09659999999997 56.0430215735834 60.435744707864444
 329.09659999999997 54.00719359997781 59.6819035523946
 329.09659999999997 51.01238262118412 59.027771269355924
 329.09659999999997 48.66358178509114 60.28546375729468
 329.09659999999997 46.21182008912958 61.54169579415236
 329.09659999999997 45.892301316790714 61.824127221799415
 329.09659999999997 41.42537832930698 64.75426187812326
 329.09659999999997 39.09002650226856 68.21182173701374
 329.09659999999997 36.015924187841684 26.966861807996395
 329.09659999999997 24.498957435432217 2.7379258122791725
 329.09659999999997 19.021209726712982 2.2520840371985287
 329.09659999999997 16.706138288447843 13.5937844357411
 329.09659999999997 15.759420417718388 17.627867012039815
 329.09659999999997 8.611779528074262 50.07109875789132
 329.09659999999997 5.775663857615657 42.116378477322996
 329.09659999999997 5.670636463298987 80.8677125965404
 329.09659999999997 -1.785084108004082 23.149863367618252
 329.09659999999997 -15.023216369608788 64.40299929942324
 329.09659999999997 -16.390543825453783 58.10536655306851
 329.09659999999997 -18.38969753548871 59.02827448045997
 329.09659999999997 -22.285724657709853 57.60263650279899
 329.09659999999997 -22.917920801277635 57.8209734256053
 329.09659999999997 -41.85030676875084 72.96521518348726
 329.09659999999997 -42.91307104141433 73.11583388546683
 329.09659999999997 -48.02362491868608 65.8536031254335
 329.09659999999997 -48.13026616429101 72.3423101683884
 329.09659999999997 -51.653605724837554 71.95534686871883
 329.09659999999997 -55.1854630096951 70.54052290972038
 329.09659999999997 -57.43772004560078 68.51195992518785
 329.09659999999997 -58.18932048348458 68.41657493997889
 329.09659999999997 -62.06167424759807 67.90594998455731
 329.09659999999997 -63.13947204023635 68.75812260416285
 329.09659999999997 -65.1899590831062 70.22004547337787
 329.09659999999997 -70.27794046226305 68.46663774327749
 329.09659999999997 -72.12405400181616 68.17972678932045
 329.09659999999997 -75.06274806313816 63.708202487874814
 329.09659999999997 -75.60786722663053 67.61874072981345
 329.09659999999997 -78.88479334612207 65.31783480014673
 329.09659999999997 -79.86999436582957 65.14781931013522
 329.09659999999997 -85.14167948880065 65.70379842656467
 329.09659999999997 -86.35400960700436 63.9785623994303
 329.09659999999997 -88.56244578438607 63.56047686338127
 329.09659999999997 -90.55477748235351 63.174703985528026
 329.09659999999997 -94.88744551658739 62.307757287803156
 329.09659999999997 -98.01205492202415 63.40884815204652
 329.09659999999997 -99.57889622273188 61.326019116803195
 329.09659999999997 -101.26109315931677 64.46318193794463
