ply
format ascii 1.0
element vertex 961
property float x
property float y
property float z
element face 0
property list uchar int vertex_indices
property list uchar float texcoord
end_header
 195.594 -140.924052231339 59.29429403890299
 195.594 -141.18240403636887 91.92843190863402
 195.594 -139.29383588470822 139.02183241160307
 195.594 -149.94812563316722 33.907742866067764
 195.594 -155.08536726266095 41.22275093620394
 195.594 -155.35872649343824 36.591599514019094
 195.594 -156.63843424472793 33.475527743613156
 196.49 172.25610188435647 44.47151192749308
 196.49 169.9181294412013 46.66450922298489
 196.49 165.88053283344684 33.699798789278844
 196.49 167.6987032709208 50.03723958522144
 196.49 162.19066265736504 63.2815581097436
 196.49 166.07127703290396 74.35436869087712
 196.49 159.3898092701289 41.90357976461573
 196.49 155.33879065096392 45.60929436057958
 196.49 149.91916426814214 55.921304692191455
 196.49 146.10587554985054 91.68561158845529
 196.49 131.47803255548325 31.395581203775123
 196.49 140.0178650306648 50.43470467185989
 196.49 136.8570388363165 73.32833874543786
 196.49 139.58847220912463 101.62539513785222
 196.49 138.64630396834386 139.04230403314108
 196.49 141.13763535770042 182.1854160029936
 196.49 141.39673543185563 239.56947546045828
 196.49 142.43575200180524 331.3529954521273
 197.3853 -147.21407174408338 -12.078264382612986
 197.3853 -152.49436248037225 3.9652110711896285
 197.3853 -139.79386665712423 66.51879274717868
 197.3853 -140.22450233365407 105.82797932161188
 197.3853 -139.96603550453577 143.69255672282907
 197.3853 -151.77188555096546 44.30490906772073
 197.3853 -156.59759904692572 37.01477985161645
 197.3853 -161.3313460943234 34.720807333862524
 197.3853 -159.55717840467096 33.08599267002248
 197.3853 -161.143988650144 40.81247780504742
 198.2813 175.3128020040116 46.46931770304289
 198.2813 174.41990752172373 42.42868090542413
 198.2813 162.8179539764386 37.758057128253995
 198.2813 166.81623992628556 88.77888068133245
 198.2813 157.67814143081745 41.75473659125947
 198.2813 153.09575326786648 43.93426855753117
 198.2813 144.61125977615373 25.100096224976767
 198.2813 144.0847073586268 50.58785470979055
 198.2813 138.8769973417608 33.90530602958151
 198.2813 139.04892799254483 56.82979337725823
 198.2813 139.04892799254483 78.57979337725823
 198.2813 140.08288077370787 112.62423006972048
 198.2813 140.7744544057293 152.3181403523825
 198.2813 141.20761813351425 196.87586152415105
 198.2813 140.51490017155126 250.933148067434
 199.1773 -144.12007184413665 0.060337493670743925
 199.1773 -148.55058270293085 22.546611559143344
 199.1773 -140.282634273362 49.51874940749249
 199.1773 -142.10713115087907 86.46068066139898
 199.1773 -139.85008735267368 114.70920132056915
 199.1773 -140.02302105585858 165.13310985282297
 199.1773 -147.5693320211423 57.496363875933184
 199.1773 -150.43435350783886 40.9272687733509
 199.1773 -153.33183817906774 39.07507019482105
 199.1773 -162.89060664571596 37.48854271934522
 200.0733 161.44726592247036 -103.79386755297884
 200.0733 179.2149665922235 38.77388464397319
 200.0733 168.6145740648547 48.926553485016
 200.0733 163.33845318976068 61.78478661092083
 200.0733 164.67086538467726 74.1313342609759
 200.0733 159.38332157295898 52.95332544196063
 200.0733 156.4111049412825 49.373888065557225
 200.0733 150.56902100819786 43.36174878225222
 200.0733 153.65596981738807 43.174144632339505
 200.0733 150.4787883099121 54.15346095188309
 200.0733 146.8061406569141 86.58610608541125
 200.0733 135.5753926112503 30.043022676123968
 200.0733 136.85719127150685 54.74201326917469
 200.0733 140.65291525999763 74.08780632891799
 200.0733 138.7483042164477 100.6720369539454
 200.0733 139.95874989211623 142.3928255877856
 200.0733 141.2618043561321 190.81934544986595
 200.0733 141.17473442795892 255.10778694851572
 200.0733 23.958166346902328 58.13153845482796
 200.9693 -143.29771728803098 -7.349096109846329
 200.9693 -142.06943150149206 10.445521822163897
 200.9693 -144.62009741984437 34.3107484332815
 200.9693 -143.47365260339737 59.822614604115955
 200.9693 -139.62974701740615 111.26704909916927
 200.9693 -139.89007797410216 139.9033620061196
 200.9693 -163.78407437582305 31.331955611106338
 201.8653 170.22265349064614 49.669176634070396
 201.8653 171.89195782250124 46.082280567734614
 201.8653 168.66170324917738 33.44687984945489
 201.8653 165.47270367447035 77.27089656874824
 201.8653 158.09168253095933 47.085797086589025
 201.8653 157.53269304341623 38.85123129494971
 201.8653 146.95698461238737 35.24796622787741
 201.8653 144.64418043385587 72.53633489240283
 201.8653 140.5137628347489 36.36078193223517
 201.8653 138.51544918096215 58.4794469299608
 201.8653 138.60202548915018 81.69200376832825
 201.8653 139.29563590565806 112.8913985606986
 201.8653 140.16516381921943 157.26298096335154
 201.8653 140.25227122049387 201.72497588695654
 201.8653 142.17582049953734 264.38129548281006
 201.8653 -7.280494413855053 46.78881399542598
 201.8653 -151.5536529905575 -11.600801441707972
 201.8653 -151.1901899874065 7.566825732396097
 201.8653 -145.53132675788999 36.639447747762205
 201.8653 -141.4747498273915 65.43976933845258
 201.8653 -140.513762834749 110.11078193223514
 201.8653 -139.64311048362828 159.99038728872858
 201.8653 -149.92205145627346 51.39944387240902
 201.8653 -156.32572103043083 36.422134352177466
 201.8653 -152.6471048386173 39.89318845279564
 201.8653 -162.89330345238088 35.279257218517756
 203.6573 179.7599788239195 43.63854388375074
 203.6573 166.45771671413965 34.31994834688621
 203.6573 165.10761994803664 88.97897745123163
 203.6573 152.9907786731594 44.22763261984636
 203.6573 153.26622933781195 47.10035312193969
 203.6573 148.8029323789866 28.39261712633106
 203.6573 146.82323843141742 51.28456835721809
 203.6573 145.21434964964155 76.25306802495803
 203.6573 147.27187738000706 101.08319077924534
 203.6573 138.00401355726717 40.40131157959698
 203.6573 140.00719796088987 62.788582453161666
 203.6573 141.4973196266693 88.89082946253109
 203.6573 140.70741519981675 122.98483260478426
 203.6573 141.93715054038572 167.44866620225898
 203.6573 142.37769652078237 220.00574943424715
 203.6573 142.37769652078237 286.75574943424715
 203.6573 -150.52463981072208 6.359923906487069
 203.6573 -144.6801942146436 42.49033607414182
 203.6573 -143.8809472935434 70.34416160564851
 203.6573 -139.91979714801832 105.32641733932977
 203.6573 -138.5251725513225 153.67775292311973
 203.6573 -148.71262559905043 52.433492315262555
 203.6573 -155.29511733536756 47.65787843671848
 203.6573 -160.34334370879571 44.52537731915561
 205.4493 175.94853772880063 43.64330033616653
 205.4493 170.47118011375306 46.63009736627774
 205.4493 172.2507770604418 47.24716986054949
 205.4493 165.10913028474621 34.50320869210705
 205.4493 165.3021628191173 81.15976011478844
 205.4493 157.31616325283625 49.462959342142284
 205.4493 156.84843294309348 47.68164860781113
 205.4493 148.11515010494495 101.92968896667395
 205.4493 142.03393833202435 42.86527495008474
 205.4493 139.21832403027562 65.08045603133348
 205.4493 141.3273327660318 91.67193791206228
 205.4493 140.00731619867292 124.99176777081885
 205.4493 140.5345648154811 174.51464091781688
 205.4493 141.3273327660318 230.17193791206228
 205.4493 142.56508883979458 310.88401242425414
 205.4493 -152.21622125217715 1.8225921621377381
 205.4493 -145.59460665133352 22.30281570804044
 205.4493 -142.21087420567517 55.288308217177956
 205.4493 -138.5188786757016 106.62950565672799
 205.4493 -140.88662449758107 139.11262731703778
 205.4493 -149.47520387442103 47.067861259292215
 205.4493 -151.94084819027904 35.198428713042574
 205.4493 -155.45021563980154 42.58266160215226
 205.4493 -153.8744831319681 40.31139155636339
 205.4493 -156.75498679563762 39.975285022634466
 205.4493 -162.89957843469944 33.3175638001035
 207.2406 169.3864992144565 41.69888281626882
 207.2406 173.05302774922959 50.391257843490365
 207.2406 167.42607940527094 40.154708010363265
 207.2406 164.609526333814 81.51471537084487
 207.2406 152.43400877511888 41.458309050203894
 207.2406 150.04591825681175 51.53851914736691
 207.2406 143.5400846794387 34.91813088277894
 207.2406 130.19943552389677 9.771911013468042
 207.2406 138.49617014482763 46.08541342833158
 207.2406 141.05097496157774 67.49489748418077
 207.2406 140.34386983744926 98.29822049018958
 207.2406 141.1394891811323 137.95684777514683
 207.2406 142.737577078599 182.51681763657902
 207.2406 142.91571129057817 243.1895441752995
 207.2406 142.38165149412086 316.6710013598977
 207.2406 -149.40655712547516 -4.17436820535832
 207.2406 -143.0939600706476 19.862149430675885
 207.2406 -140.16737276331438 83.12375344890506
 207.2406 -140.52047838333112 112.47256857235851
 207.2406 -139.46249498193075 171.924698836321
 207.2406 -153.17308374979896 41.871522387533986
 207.2406 -155.9629108689241 39.83978976546709
 207.2406 -155.9629108689241 33.33978976546709
 207.2406 -160.6786392853265 41.38626084681772
 209.0326 169.76176892632355 32.795013022660555
 209.0326 167.6945226683993 79.298366931965
 209.0326 158.72960208600637 46.30132418580018
 209.0326 157.0287941658613 42.589730829051035
 209.0326 153.28722058147648 44.80284899868073
 209.0326 149.32165222700087 48.586022778030724
 209.0326 145.8641994491906 95.11285864126833
 209.0326 139.9592300405482 44.40906611431336
 209.0326 140.13636139855706 64.58383424058917
 209.0326 141.20148261890677 91.6299442411852
 209.0326 140.31360350550645 129.25848363951252
 209.0326 143.34386840915514 173.2092052925536
 209.0326 143.5231401992484 232.13169052285585
 209.0326 144.1514969167186 321.35942890426736
 209.0326 -146.67917404566205 -11.49467434638592
 209.0326 -154.7776436952693 -2.3760243301514947
 209.0326 -144.87135281375632 27.046437370361843
 209.0326 -143.70252678631957 53.3040539941301
 209.0326 -141.02368361761353 100.95589083053287
 209.0326 -142.092162041629 135.49841306273157
 209.0326 -148.8642426605819 50.78951954437079
 209.0326 -158.06689513694903 41.609233506590044
 209.0326 -161.97205369907832 30.781808483448543
 210.8246 176.75748310389386 50.88423767801788
 210.8246 171.61612041341218 48.16899554135409
 210.8246 168.9344259509906 50.97109456269325
 210.8246 164.42722232699788 39.127933971726094
 210.8246 157.33199961163405 46.44065605954685
 210.8246 152.92001967934607 47.448130864815056
 210.8246 148.30272177375278 33.00466291128208
 210.8246 146.6590622436316 58.22558089823366
 210.8246 149.77191622016295 82.35527701043128
 210.8246 140.26749483296481 26.22197225030942
 210.8246 142.86078110927247 52.11869831449155
 210.8246 142.23265504619832 70.38731854261368
 210.8246 140.17848899210787 102.50956791267853
 210.8246 143.13040310849976 136.7531216477094
 210.8246 141.96388154036129 191.00198908487033
 210.8246 142.7709638986391 260.15716329501083
 210.8246 -153.94626073737385 -7.015154900078244
 210.8246 -142.77096389863917 16.907163295010804
 210.8246 -142.95062669657602 46.33020305982541
 210.8246 -141.60591028039929 81.90446218893462
 210.8246 -142.05344456368022 113.71379567187043
 210.8246 -159.3266257373589 39.019763282635466
 210.8246 -161.24003575554553 41.12868700610599
 212.6166 180.32148454963487 47.64939313804899
 212.6166 176.21439588114842 51.19411376329049
 212.6166 172.67244496361127 41.93221662952959
 212.6166 173.88149631985934 54.591574401008245
 212.6166 166.02088598389003 47.631307775811905
 212.6166 169.17711951805498 58.12401481387411
 212.6166 165.2375824290908 72.00234550129673
 212.6166 162.80429164695613 90.64715925663668
 212.6166 153.75066763702557 42.800757034658204
 212.6166 151.97501250669654 54.59531911072111
 212.6166 138.60103450282207 34.8590302083139
 212.6166 138.95684536717215 59.96086903098984
 212.6166 141.28026552941668 83.98629499600008
 212.6166 143.26089271089901 117.89587343624888
 212.6166 143.17056840574762 165.68439149161077
 212.6166 142.44899227576448 221.74144572258564
 212.6166 143.984510929234 291.08663469742146
 212.6166 -143.26089271089887 -5.604126563751066
 212.6166 -150.85933267271267 11.591118815369242
 212.6166 -142.44899227576434 32.991445722585695
 212.6166 -142.53909053866454 80.95316975054442
 212.6166 -142.1788661929309 115.85609269248317
 212.6166 -139.58055938894387 151.70045377160025
 212.6166 -149.65566528926317 63.62302090194714
 212.6166 -152.7212792599828 41.512199451076896
 212.6166 -156.6723769549583 37.47888160277225
 212.6166 -156.0099347868747 40.53015961209945
 212.6166 -160.20060374200256 41.60893867185746
 214.40859999999998 172.20859444249626 41.18267886874804
 214.40859999999998 173.1159726673415 52.492973931352026
 214.40859999999998 167.0249229649328 46.41424413499982
 214.40859999999998 165.44967979702068 58.15796494661373
 214.40859999999998 165.351528698553 69.95414277157636
 214.40859999999998 157.3248358959043 45.16490636294051
 214.40859999999998 151.1966602359522 43.65842994054441
 214.40859999999998 152.78657649861975 53.45425782536995
 214.40859999999998 139.6795736237481 32.84493254752846
 214.40859999999998 140.48726492765846 59.00835962351775
 214.40859999999998 142.10933680149486 85.32797301763003
 214.40859999999998 142.92375551469505 119.98413104029282
 214.40859999999998 142.01898578798733 168.11602697660945
 214.40859999999998 143.83134114759758 210.59920848626962
 214.40859999999998 -153.91428289341448 -20.298457170889947
 214.40859999999998 -144.10416992859362 6.733138556903725
 214.40859999999998 -144.28619827187723 34.15560601019888
 214.40859999999998 -145.28940205528926 63.47698721796465
 214.40859999999998 -141.5676486048365 97.55584612738934
 214.40859999999998 -150.91701060377935 64.28172818753208
 214.40859999999998 -161.45405935073714 35.52226294083613
 214.40859999999998 -159.62192561753514 37.36633679711625
 216.1999 183.78175362359235 43.01222687134316
 216.1999 174.66414218455088 51.76708500346808
 216.1999 174.86796385831067 43.16806124658939
 216.1999 170.01801067756435 47.752952000204914
 216.1999 170.82035605695984 47.86978683276595
 216.1999 166.63404051546567 60.10524144646638
 216.1999 166.73297605354585 73.55871381465352
 216.1999 159.89149724361945 48.73020469243224
 216.1999 157.48821133652234 41.32179927116388
 216.1999 153.0246566734051 41.81739157092517
 216.1999 154.25225436888124 44.52271199040442
 216.1999 142.47766233243087 43.863470446368524
 216.1999 139.67404922518114 65.53063193078225
 216.1999 143.3877387475525 96.4808111303989
 216.1999 143.02337150504766 136.13423806912874
 216.1999 143.20549887208017 184.05758524023875
 216.1999 143.57009134427463 243.90391558144063
 216.1999 143.20549887208017 280.8075852402387
 216.1999 -148.166171384953 -11.058411006429594
 216.1999 -146.13498355607175 8.814537346319923
 216.1999 -143.11442113829418 38.845926804931054
 216.1999 -142.02367260234564 66.30366776495475
 216.1999 -142.47766233243078 105.36347044636858
 216.1999 -140.39503735344698 151.98217192845146
 216.1999 -150.7720791806912 59.55853925293147
 216.1999 -153.40181640524406 40.900385970667145
 216.1999 -159.40919153844132 40.95022264240785
 216.1999 -160.37463505461068 38.259331205591025
 216.1999 -162.51042754349436 32.02724663629186
 217.9919 176.11186784397398 49.08939026968801
 217.9919 171.42722629299337 32.593789530584786
 217.9919 166.62237678865372 81.36235014445782
 217.9919 159.760369063275 42.023173729357836
 217.9919 149.3942652884277 83.11480416377393
 217.9919 139.5637693775839 24.005644302159908
 217.9919 140.559595280922 47.845953094791696
 217.9919 144.3924756189647 69.49833911084886
 217.9919 144.3006429759538 101.03699847441118
 217.9919 143.93359547098697 139.94133061088613
 217.9919 145.1281599867801 194.18796195028082
 217.9919 143.93359547098697 253.94133061088613
 217.9919 -146.60502910235573 -1.6887031922134952
 217.9919 -148.36846654915468 12.056798802366899
 217.9919 -144.85206477416165 47.804583321050984
 217.9919 -141.8317845039792 74.31931742699172
 217.9919 -142.28744602255244 121.87980991051631
 217.9919 -148.74106880898515 42.896515237388826
 217.9919 -154.86363822568188 33.47021794672088
 217.9919 -157.2535012499917 42.90413442493991
 217.9919 -155.72169451130165 41.838819011131335
 217.9919 -159.76036906327494 37.27317372935789
 217.9919 -161.99661013680443 46.75348255464047
 219.78390000000002 179.2215908083233 46.85200721305171
 219.78390000000002 179.43005019666816 49.00009165148953
 219.78390000000002 167.1927914295388 73.84485175567437
 219.78390000000002 163.3283014765521 44.88056991769349
 219.78390000000002 160.00164074930407 41.393875567674
 219.78390000000002 151.28239967792243 48.752427334393616
 219.78390000000002 147.9968445052362 74.41480877388233
 219.78390000000002 143.36518108965188 14.116083630410742
 219.78390000000002 142.08098177906757 43.64873818247011
 219.78390000000002 141.98946099189817 67.68655873666847
 219.78390000000002 143.73309829616574 97.96280643599025
 219.78390000000002 145.02435500876635 136.92249431463486
 219.78390000000002 144.1014644315981 187.55904242677306
 219.78390000000002 143.9172251416381 247.3859853617647
 219.78390000000002 -145.11679999869656 -6.116329034014882
 219.78390000000002 -149.9637931180338 15.322046210353392
 219.78390000000002 -141.167010920678 59.02559345367527
 219.78390000000002 -143.2732717344967 84.6543270111602
 219.78390000000002 -142.08098177906749 128.39873818247014
 219.78390000000002 -154.98721438241049 33.88227757753009
 219.78390000000002 -154.7005538343144 43.25866695550326
 219.78390000000002 -159.9043815715866 40.68778215465397
 219.78390000000002 -161.66012326363568 34.39221791221951
 221.5759 180.367928292572 46.321533583706696
 221.5759 177.6533552093864 43.13985654164895
 221.5759 176.61631457380687 44.889902647463884
 221.5759 176.09923890896985 46.13848208220219
 221.5759 172.5062502970447 29.10192357113567
 221.5759 165.75348646370088 78.50538367780115
 221.5759 159.83890258132547 51.44366797081466
 221.5759 159.156692850803 47.249210100960454
 221.5759 156.25089697323395 44.28995435193866
 221.5759 151.75551436584647 45.752237034156224
 221.5759 135.58340157130013 -27.299608892726326
 221.5759 152.32560234601135 71.00573839868991
 221.5759 139.02351283260072 37.57425104980544
 221.5759 141.76648122245228 63.45783051531413
 221.5759 142.31801098742457 91.98132116379873
 221.5759 142.96271620156506 126.96568909789238
 221.5759 144.34881454054664 175.3914755035848
 221.5759 145.9273814522709 226.7323852561417
 221.5759 145.83429720731962 322.0214014573942
 221.5759 -7.849851363054928 46.572545513988246
 221.5759 -151.7555143658463 -9.24776296584372
 221.5759 -145.3693037744895 12.966019769344797
 221.5759 -142.31801098742469 58.4813211637987
 221.5759 -140.84945354191402 84.08294697941201
 221.5759 -142.31801098742469 123.4813211637987
 221.5759 -140.48340366003936 181.48215740652049
 221.5759 -158.47608029236696 39.303090541148265
 221.5759 -156.4437205555858 50.454841702840724
 221.5759 -161.6005646273 50.65030116877301
 223.36790000000002 182.67409356477677 42.22417055698833
 223.36790000000002 177.2111542458017 41.87203641516288
 223.36790000000002 174.21004642728903 44.803213868794785
 223.36790000000002 173.2851090519442 44.990892495343246
 223.36790000000002 167.89837982576543 74.75744299109556
 223.36790000000002 163.50189599560997 51.26955947552841
 223.36790000000002 158.487777222029 53.267282956455404
 223.36790000000002 158.19548075810027 49.646740392889114
 223.36790000000002 154.229419156596 44.13590173844432
 223.36790000000002 151.45567115459068 43.58273282172371
 223.36790000000002 136.49846004245376 2.249954862676759
 223.36790000000002 144.3978859685745 17.80404825134218
 223.36790000000002 143.28357016038876 40.51328390855838
 223.36790000000002 142.4504551602703 67.10484225572472
 223.36790000000002 144.3978859685745 99.05404825134218
 223.36790000000002 145.79646314574495 137.22380988518933
 223.36790000000002 144.49092721296105 186.2655803933757
 223.36790000000002 145.2362695951397 245.45673477607275
 223.36790000000002 -149.17932613107263 -9.947223233072293
 223.36790000000002 -144.6770939111268 14.688552898967174
 223.36790000000002 -146.2640728175035 42.02885727611587
 223.36790000000002 -144.02600107045015 78.20761421081295
 223.36790000000002 -141.06686780577394 129.41868393537763
 223.36790000000002 -139.41460291223194 187.08642570753494
 223.36790000000002 -154.51783113886358 34.51052993689353
 223.36790000000002 -157.32032427444742 42.2832981759359
 223.36790000000002 -158.78036387230745 38.63752206061855
 223.36790000000002 -160.54202403538238 34.352548814209115
 223.36790000000002 -163.89882780780593 31.839466387946516
 225.1599 183.9258194290636 40.142444598343104
 225.1599 176.2309386635223 44.60372643650061
 225.1599 170.2620849683062 30.156793033337635
 225.1599 166.1159966346284 80.0636845534982
 225.1599 151.23459310793734 32.37485671033795
 225.1599 145.74394171078313 30.179119510694306
 225.1599 143.12769969365803 54.754133723882944
 225.1599 143.8729663703049 80.44942991319749
 225.1599 144.05956033756033 117.37294973435775
 225.1599 145.1814696669595 163.16150124948672
 225.1599 146.68366301149192 214.789346383066
 225.1599 -143.77971107324635 18.737624301299093
 225.1599 -144.5265328279287 43.181215202792885
 225.1599 -142.75572893872527 83.15575763626106
 225.1599 -141.920399122636 119.99514476535242
 225.1599 -147.90957776010478 46.52799632927878
 225.1599 -157.50776405364385 39.414205668938564
 226.9512 180.68895591167006 40.23767246793744
 226.9512 165.92337363308172 27.384046342888155
 226.9512 169.57060872662376 78.46915477149679
 226.9512 147.37667409378824 31.1859099970369
 226.9512 150.99697223822628 55.42028287293999
 226.9512 144.07885730293586 32.54199985132249
 226.9512 143.79778453908477 51.65648524167534
 226.9512 146.05339691033925 79.23288432880855
 226.9512 144.26637779957855 115.46552373933235
 226.9512 145.77056157826368 160.8493028380321
 226.9512 145.95909020575198 215.27172139102856
 226.9512 146.14773191114693 280.944016347876
 226.9512 -6.953223798182442 46.47100283284652
 226.9512 -157.3877880751097 -16.32254807042085
 226.9512 -148.0404155468796 13.410133291028444
 226.9512 -143.6105410446916 47.23265654075334
 226.9512 -143.42340798461527 82.55870618292528
 226.9512 -141.27924801003158 126.92458209531014
 226.9512 -149.84915592026613 63.15383615967994
 228.7432 183.82925038220995 47.24353668520837
 228.7432 181.47570218405718 46.877481836561515
 228.7432 173.38589383717937 47.69791684341493
 228.7432 169.06581688528698 27.187801375773688
 228.7432 166.5239688177624 79.34183023757231
 228.7432 163.70256981099112 51.60798193063073
 228.7432 161.0067876938819 43.303020294644284
 228.7432 155.7836562992849 44.32670249941356
 228.7432 156.56636086021743 46.7395308798761
 228.7432 151.70668534943425 31.812438403362194
 228.7432 149.688055039624 58.65895947373804
 228.7432 152.67254334229563 84.15436615216106
 228.7432 141.7399296127682 30.157151006564106
 228.7432 144.6501664241103 53.98369956724321
 228.7432 143.5204965908754 82.4414000924101
 228.7432 147.0165560341292 119.01594909583963
 228.7432 147.0165560341292 169.51594909583963
 228.7432 147.68231530910938 230.74150636899145
 228.7432 147.49195550505775 300.32007458970975
 228.7432 -147.20663023654905 0.9376928018073158
 228.7432 -142.86335324723902 27.95636796778507
 228.7432 -142.95714874718269 60.66860638518392
 228.7432 -140.71354066902828 115.56656679899783
 228.7432 -141.27298629190335 141.34369834570515
 228.7432 -148.25408330552622 81.255050770009
 228.7432 -156.5663608602174 40.9895308798761
 228.7432 -163.20152910131708 43.331188813516974
 228.7432 -170.60144730013437 -1.5154450221212983
 230.5352 181.93260832340735 51.9243039980625
 230.5352 180.97100251533695 42.38306025679526
 230.5352 171.21471653068812 41.19121016843695
 230.5352 164.98503418633123 45.507327151033735
 230.5352 150.28185574087343 41.59687155602944
 230.5352 150.95730980054756 69.81540327827247
 230.5352 144.2662344249105 41.06076860048836
 230.5352 143.88805806605137 64.46305934188268
 230.5352 147.21220096568283 98.61383861346911
 230.5352 146.16377304322305 138.79195415270203
 230.5352 146.63990718912504 191.59782203795731
 230.5352 147.9768517875213 265.3001145320232
 230.5352 -147.97685178752124 -20.1998854679768
 230.5352 -143.98256085218225 10.92503244130063
 230.5352 -145.0239134601296 28.75471865179219
 230.5352 -142.56789393076875 67.49224293163394
 230.5352 -142.28569583944966 114.35486684432982
 230.5352 -140.50406679822578 172.5618662335957
 230.5352 -151.3439316348867 46.40386169436732
 230.5352 -158.6827709683457 38.77855912566798
 232.3272 177.05122460231078 45.985801822530846
 232.3272 168.20906743193157 38.537096957131666
 232.3272 167.696926383418 80.51718143564528
 232.3272 164.94613876150072 51.49426941560313
 232.3272 161.61723672516706 47.4593459608609
 232.3272 151.06170516660603 36.20687892784781
 232.3272 145.76920807074322 31.624577463065066
 232.3272 144.7209850810133 59.79680258748482
 232.3272 144.81613941856227 89.7585722239732
 232.3272 145.86466804280482 129.83600845256393
 232.3272 147.68374702719458 178.8473038560387
 232.3272 146.4380156104372 245.60394478292528
 232.3272 147.20405377089372 300.29278883759923
 232.3272 -146.15121572425477 6.970115935261333
 232.3272 -145.67377601544504 34.913115591441965
 232.3272 -144.43568772752909 68.66130972616264
 232.3272 -141.69049164565183 123.00408272410203
 232.3272 -156.14727351344283 43.318501114868866
 234.11919999999998 180.33807541051365 49.697607793579266
 234.11919999999998 179.37592710672197 43.39896527104685
 234.11919999999998 176.19091974402616 45.630986920802854
 234.11919999999998 171.26776306449003 35.634633377686725
 234.11919999999998 163.06611250815484 53.536127051813935
 234.11919999999998 146.7973956631648 36.38000153135704
 234.11919999999998 143.35385537112106 62.007511401123395
 234.11919999999998 147.47116440365804 91.35749964247043
 234.11919999999998 145.83725560493463 137.5166480047962
 234.11919999999998 147.76034628676808 187.9902449492032
 234.11919999999998 148.0497835261532 263.3727085907836
 234.11919999999998 -145.07114934563134 -5.926261117550268
 234.11919999999998 -145.64556252445686 22.093605788722755
 234.11919999999998 -143.25870958507443 50.54520880078587
 234.11919999999998 -143.54422845570065 110.43202533442872
 234.11919999999998 -143.35385537112106 140.2575114011234
 234.11919999999998 -151.05576349655996 63.89154431527663
 234.11919999999998 -152.6182025155754 42.74411929805245
 235.9105 181.93375550719512 44.2014498173765
 235.9105 179.88920003429905 42.15938702391452
 235.9105 169.55681260019486 37.63239152552575
 235.9105 167.28427810425995 44.14410117045679
 235.9105 162.38271570036989 48.79203109813989
 235.9105 162.18013336400173 45.379787912422444
 235.9105 154.37828931494016 39.946758565628556
 235.9105 147.3397464765414 42.33181935228737
 235.9105 146.75993031723107 66.06483305692342
 235.9105 145.6033163192976 102.77750519087431
 235.9105 146.8564961880378 147.27607531661278
 235.9105 147.6300343561324 200.71489126573948
 235.9105 146.8564961880378 267.7760753166128
 235.9105 -150.25414974669874 -4.850193678130381
 235.9105 -143.68446281964964 30.78876122378773
 235.9105 -144.8344578180658 67.83348116971047
 235.9105 -142.34774257195508 119.31437259070049
 235.9105 -142.15721303625762 171.38897489564323
 235.9105 -148.7937347305064 66.49435841132544
 235.9105 -156.46017015643628 42.573713120024365
 235.9105 -155.86397503899397 41.574636727287384
 235.9105 -159.45787689173153 42.8011120154959
 237.7025 167.8299105875871 -116.38062731610484
 237.7025 177.92412057428268 42.31505949946586
 237.7025 175.7938307258766 44.04210041680352
 237.7025 170.42720683111352 72.46592444560855
 237.7025 164.43398875257242 46.857833835230736
 237.7025 163.82044342837605 49.62435544986221
 237.7025 158.75288602199004 40.79718524658489
 237.7025 155.75016156752451 45.560357786064685
 237.7025 149.82611767214493 29.49824357528223
 237.7025 147.48581786294102 29.19116289197416
 237.7025 147.68021940239282 54.36327781544759
 237.7025 144.77590452051834 87.01849277500332
 237.7025 145.35477429592427 122.78967876415811
 237.7025 146.70933382527622 172.7514541643285
 237.7025 147.1944262837168 239.55775607165242
 237.7025 146.90328694189319 286.17406839272314
 237.7025 -154.954092972548 -13.357831641124221
 237.7025 -147.5830045662384 19.902235995619662
 237.7025 -145.93463499716535 44.05975436762293
 237.7025 -144.58316716057897 83.59451806263354
 237.7025 -141.9918233812403 139.85890342906345
 237.7025 -148.94658453589685 54.3539657954737
 237.7025 -152.8735721143258 39.753210949979405
 237.7025 -158.4513587385571 37.67485438366373
 237.7025 -160.97274723213644 37.60166073187054
 237.7025 -159.96182076988 38.28347691109076
 239.49450000000002 168.2623054420138 -118.35651737023181
 239.49450000000002 181.96956978997818 44.435549363901146
 239.49450000000002 179.05015454292356 50.03684290571482
 239.49450000000002 176.15808251178922 40.86014333978983
 239.49450000000002 175.73191052258002 54.30383968711726
 239.49450000000002 165.26138307776338 47.455204423916484
 239.49450000000002 161.57478114015987 48.54258604405743
 239.49450000000002 154.12557971204046 26.16734254273979
 239.49450000000002 147.42485777256005 29.380965493993585
 239.49450000000002 147.52243909933577 54.09212185472728
 239.49450000000002 146.0616468989836 85.67150204525109
 239.49450000000002 148.20629455542138 123.31933926312541
 239.49450000000002 148.30410082184926 173.7802447870862
 239.49450000000002 148.89153234946556 239.545016972668
 239.49450000000002 -148.79355625484112 -5.915699608663317
 239.49450000000002 -147.32730444340464 19.419777865495405
 239.49450000000002 -146.8399568334584 63.113371378581235
 239.49450000000002 -144.89749318883818 105.12998097634534
 239.49450000000002 -154.82304978065673 32.37954304952092
 239.49450000000002 -157.4266256990829 42.04645625115029
 239.49450000000002 -155.62196251281503 44.2986625015522
 239.49450000000002 -162.49248518375634 39.39994151366574
 241.2865 166.70553786979687 -113.7154253135327
 241.2865 179.41562085021633 40.85774630025867
 241.2865 172.6793194757252 33.15421904172513
 241.2865 168.26680901902296 80.60370151166785
 241.2865 161.4528693684086 41.540483124457694
 241.2865 155.98150187541026 45.83219808395694
 241.2865 144.229797627212 28.547071812540537
 241.2865 144.91003464924665 52.78206301590592
 241.2865 144.81277644000542 78.82001366582034
 241.2865 146.17687902024673 115.78589501629187
 241.2865 146.86095234929047 166.01655725110055
 241.2865 149.01979340553663 230.66009162629092
 241.2865 -145.00732009139708 -4.255918433592171
 241.2865 -146.46988734966078 11.420651181058759
 241.2865 -144.2297976272119 55.047071812540594
 241.2865 -142.6799335933922 105.14717303399419
 241.2865 -143.5508861639102 141.81057777365072
 241.2865 -151.88654416290981 52.2577122682784
 243.07850000000002 166.89927616516755 -115.59371775139374
 243.07850000000002 182.60464512543172 38.1302465994753
 243.07850000000002 172.26108140984763 36.30934438855178
 243.07850000000002 168.15291103371732 45.86246289760152
 243.07850000000002 164.0960866165171 47.36130070860497
 243.07850000000002 163.57959823733998 45.081657291499084
 243.07850000000002 152.41505498783786 39.46522541611267
 243.07850000000002 152.1156850001892 68.58599636955137
 243.07850000000002 153.81559957088606 94.39777616483849
 243.07850000000002 148.74095007105592 40.43458999723987
 243.07850000000002 146.57472079990376 66.28771928009638
 243.07850000000002 145.98626055534356 102.26776655474669
 243.07850000000002 146.86932306281574 148.4222754927216
 243.07850000000002 148.6421914102369 210.22369844437225
 243.07850000000002 148.6421914102369 266.72369844437225
 243.07850000000002 -151.51772993284905 -10.423331412141806
 243.07850000000002 -146.86932306281568 26.422275492721667
 243.07850000000002 -148.0502296231249 52.70768742864976
 243.07850000000002 -143.73959686091595 114.13930162003987
 243.07850000000002 -151.3186433356883 31.406635562424185
 243.07850000000002 -155.62482695296953 42.65880880666924
 243.07850000000002 -153.31474371716988 43.351166654673534
 243.07850000000002 -159.2726860196736 40.14872500331268
 243.07850000000002 -157.95082231396256 42.69902099164517
 244.8705 167.08097819134846 -117.21889948921489
 244.8705 179.45896821262022 41.05687155208392
 244.8705 178.4813984866782 43.24953853855999
 244.8705 176.53518831056093 46.37563124875055
 244.8705 171.50825507789003 33.85610123151622
 244.8705 167.81471439218583 46.71465420497458
 244.8705 162.60914113520957 46.68720792833466
 244.8705 159.9340802304226 48.30873670280937
 244.8705 153.03619295479376 41.88471779638991
 244.8705 155.85961001583672 69.23960785508802
 244.8705 149.0423825296771 42.726593727189936
 244.8705 147.952058997621 70.65543203549674
 244.8705 147.7541817658219 107.48299333209468
 244.8705 147.16121695345754 160.46492447860567
 244.8705 148.24908397382242 220.03885433546554
 244.8705 -147.65528489616645 1.5217268864867606
 244.8705 -144.11330569744499 37.89538805257769
 244.8705 -146.17515256860563 73.59897631730894
 244.8705 -144.40712450116064 131.5324478317413
 244.8705 -152.53444270528917 48.586513537798055
 244.8705 -155.75837179465265 36.78094747069275
 244.8705 -157.58527969067006 39.281767961735966
 244.8705 -157.38180450546824 37.86554163390565
 244.8705 -162.6091411352096 39.1872079283346
 246.6618 185.40764624150106 50.07057718043205
 246.6618 181.64961600828136 44.79418071455109
 246.6618 175.9859219023048 42.84376706665796
 246.6618 173.29785499239821 46.03324067453474
 246.6618 169.4654157752513 78.45574324352862
 246.6618 163.07107781206827 44.6839418521256
 246.6618 164.5278505822916 46.31934465443243
 246.6618 160.69138576188752 43.178975251235045
 246.6618 157.10177814887552 47.908718018077764
 246.6618 151.23440439952958 35.521569340044664
 246.6618 148.1382919667928 -8.760039533016652
 246.6618 155.9813381139663 93.36532104961123
 246.6618 144.28109076134118 38.729863131598336
 246.6618 147.7407591593006 64.39495614959583
 246.6618 149.03437198870176 100.6393764077473
 246.6618 148.83504722653328 145.46750508812812
 246.6618 148.03886707167342 203.77875656879206
 246.6618 -145.56221553953063 7.488481407074175
 246.6618 -145.26616604333364 34.60234070561978
 246.6618 -146.64982691608577 63.31860658510908
 246.6618 -144.28109076134118 110.22986313159834
 246.6618 -153.8523572757464 37.97594104251152
 246.6618 -159.3536925556938 38.48340865182752
 248.4538 184.30021245583941 49.56922366054596
 248.4538 179.99466456297228 47.273158882979885
 248.4538 168.04195895525265 47.7698518757598
 248.4538 161.7549745544973 46.67107421601287
 248.4538 159.37539585551548 45.404429251294346
 248.4538 158.2431238555994 42.86840380115558
 248.4538 155.8875313272265 25.32546423360185
 248.4538 152.93990520889656 82.25732125226921
 248.4538 146.81866316516636 29.654825460135214
 248.4538 146.81866316516636 56.904825460135214
 248.4538 148.3141992246917 86.57622617728714
 248.4538 148.5140747356848 132.7485447619265
 248.4538 148.91416023842027 181.09280280629946
 248.4538 -148.11443492461072 8.403781420040048
 248.4538 -148.01459441254093 26.192511773996046
 248.4538 -143.94470291883175 74.25356066248384
 248.4538 -145.03215255642252 131.5898653305931
 248.4538 -153.54773245213536 49.015053495995915
 248.4538 -161.44365716025396 39.55035943801698
 248.4538 -164.1512221013613 38.41960554326374
 250.2458 184.06610709067934 50.91075476965182
 250.2458 171.06982987734642 39.420124526384654
 250.2458 166.28425565840718 47.96189822577372
 250.2458 163.13085036627578 48.033336774756435
 250.2458 162.3992034723523 46.33717834619489
 250.2458 158.04146964514675 41.87511554415704
 250.2458 153.33008506355085 44.76563228949135
 250.2458 148.47938746660697 24.16497538828827
 250.2458 149.4845760372616 50.02535322821052
 250.2458 149.5852486196276 79.2362164828395
 250.2458 147.17678916920192 119.41676280546613
 250.2458 149.98821978247736 172.57935122145307
 250.2458 148.68020221826075 240.33730436103048
 250.2458 3.752940626642483 46.23364312791591
 250.2458 -149.08216574043882 -10.56841749696298
 250.2458 -150.49256761913162 18.132552076130025
 250.2458 -145.57994727745628 47.52707691420022
 250.2458 -146.17794708748025 90.29914499824673
 250.2458 -143.296572926805 147.89049131401384
 250.2458 -151.19984385831228 62.105689493297575
 250.2458 -158.7639819324906 39.581268988090756
 250.2458 -160.1097705422725 39.031177752495694
 250.2458 -161.77330982882808 38.59627300026432
 252.0378 164.93188902868258 -118.03169604145569
 252.0378 180.92659179265112 43.80421289656607
 252.0378 175.54657734653046 42.43277049750583
 252.0378 167.0498506445535 46.080343315626465
 252.0378 162.72189009078411 45.13563521856207
 252.0378 161.04744194434994 43.32434717095043
 252.0378 160.00496239343914 42.50035382111946
 252.0378 140.85003730429457 -13.062577459075328
 252.0378 149.3405013982705 26.98381735606955
 252.0378 150.04848445855137 53.95991033917301
 252.0378 146.62243936132415 87.77578267401816
 252.0378 148.73474760870602 128.46735481205388
 252.0378 148.93655425310286 182.88963589349999
 252.0378 150.4536637449417 260.302690190393
 252.0378 47.3647782086623 45.98170397130653
 252.0378 -145.52079475990612 1.9437280777537467
 252.0378 -146.72275155293866 43.487600302673115
 252.0378 -144.2230473478026 73.68281654875386
 252.0378 -144.02379404701105 120.50759722203657
 252.0378 -156.07138912215964 38.08845779171833
 252.0378 -155.65985202813232 40.752827515376055
 252.0378 -157.8257480643198 42.383964271222396
 253.8298 167.38280169984208 -117.61981177002235
 253.8298 181.76737850062815 46.15080293623976
 253.8298 179.10613062763463 47.831856197625314
 253.8298 176.79472134161765 42.59727191249806
 253.8298 176.35624326441305 46.53880017710327
 253.8298 173.08560587701945 78.20627928121098
 253.8298 160.61882427264484 42.67478785398839
 253.8298 159.88682759187478 46.72189129617874
 253.8298 149.58912859192822 16.038456517666873
 253.8298 150.19885330118012 40.30364185506278
 253.8298 148.3726860873869 69.00464881952911
 253.8298 149.3861104645979 109.11647297370723
 253.8298 150.19885330118012 159.30364185506278
 253.8298 149.28464317667147 223.15543345606164
 253.8298 149.79225829843116 314.96031261371377
 253.8298 59.41001389554594 71.1410590877386
 253.8298 59.41001389554594 73.6410590877386
 253.8298 53.78653025104885 73.04082420456598
 253.8298 51.78138632849977 74.09072479973042
 253.8298 49.697552963699344 73.89067162252076
 253.8298 45.29527599740902 41.23486552612417
 253.8298 -150.8095879851755 -5.432323945099142
 253.8298 -146.6561796233579 31.157297149228498
 253.8298 -145.8511329960283 58.96128806702853
 253.8298 -144.0460587953166 122.38798656350906
 253.8298 -144.0460587953166 182.63798656350906
 253.8298 -157.28475419432382 42.26947864927115
 253.8298 -159.88682759187463 41.971891296178796
 255.6211 164.71631456569864 -119.8253742976056
 255.6211 181.37261419411652 46.04659404211793
 255.6211 165.99422054695307 43.396145043267325
 255.6211 161.85775900472194 46.34540658936089
 255.6211 161.9632232014805 43.80249258259403
 255.6211 156.5197138859473 43.73903805248648
 255.6211 152.48993260022993 29.819852530515732
 255.6211 156.72757115391437 87.406619218819
 255.6211 147.1842365977391 34.351057284102126
 255.6211 147.79260930580242 61.62107740524391
 255.6211 150.33815849017043 99.90055224412293
 255.6211 148.3003384655169 143.9285597401456
 255.6211 149.3178611998423 204.79114803729505
 255.6211 63.65596265006561 69.90301365822751
 255.6211 62.889063745675934 70.78868143879436
 255.6211 60.338389602735454 68.72856179972217
 255.6211 57.11955487186613 69.75866567789802
 255.6211 55.683712458481125 68.73609175916664
 255.6211 52.73528921900063 69.1855325004928
 255.6211 52.48303656581591 69.22288429050315
 255.6211 49.9644324440843 70.33628087875508
 255.6211 -150.23600314974937 -10.56024435556435
 255.6211 -146.07142524046162 28.51974926084074
 255.6211 -147.9956187346533 57.79416515243395
 255.6211 -145.66757565077285 102.42106211049406
 255.6211 -143.95598001813636 158.80859036059815
 255.6211 -158.91729154471577 38.53316010627424
 255.6211 -164.3975585649848 33.05595980928166
 257.4131 165.12250853436487 -121.81307586236812
 257.4131 180.96319169580997 43.443280659270386
 257.4131 173.0075244381339 43.638170151113854
 257.4131 167.5878953773066 44.168109098246646
 257.4131 164.9089309551078 45.27463890419028
 257.4131 163.84295118835294 42.96112149386124
 257.4131 159.3999792699405 43.006715934615215
 257.4131 156.57219114911655 23.879447576312714
 257.4131 154.80283128747945 54.3238957090511
 257.4131 147.29894368719542 31.949060218530917
 257.4131 147.7062753871219 60.295930907891204
 257.4131 150.56990115315054 94.70981190147984
 257.4131 150.1594816784619 144.36650301458548
 257.4131 149.33997958485406 203.42834919044662
 257.4131 63.673074136418876 71.89698559067983
 257.4131 61.01785263205726 69.10701745193757
 257.4131 59.13903542970463 68.67115907413671
 257.4131 57.9457361726773 68.8657681743801
 257.4131 55.564354644694845 68.74268917957988
 257.4131 56.07407621454663 66.91329652212414
 257.4131 53.95225169124998 65.98916636790977
 257.4131 49.555190576777115 68.37562691188941
 257.4131 49.63955026111666 69.11391087572889
 257.4131 48.96488399673438 71.70706677087026
 257.4131 46.01875303187898 74.09928701686357
 257.4131 -13.807886000277081 49.56650790823409
 257.4131 -153.9731105381204 -11.852600950128306
 257.4131 -147.5025551334279 16.372558648030065
 257.4131 -146.7903897388694 57.389763113173274
 257.4131 -146.48558181832317 84.75380772908323
 259.2051 183.35046024547123 40.855226620651536
 259.2051 181.4359409883011 44.19858061799471
 259.2051 178.30562295589496 45.563411307265994
 259.2051 172.3469616783251 34.862322052372576
 259.2051 167.45718151034296 44.154952096099976
 259.2051 165.4125327494402 45.245722019288735
 259.2051 163.16605723238328 44.41029039863531
 259.2051 159.03044050253047 42.5684852849576
 259.2051 148.5294048889341 -20.872819112086745
 259.2051 156.089669227101 75.72726512635137
 259.2051 145.87249926925438 21.868768351113943
 259.2051 147.19866614782825 51.12563840195901
 259.2051 148.11945644000605 84.0311222709359
 259.2051 148.73454335597714 123.55001969819335
 259.2051 149.45339384948596 181.02895289375277
 259.2051 151.20482782117108 271.1141215250736
 259.2051 67.84097276988595 64.38863414744418
 259.2051 65.67317926857937 68.53694541690174
 259.2051 62.90769906645731 67.02712119804801
 259.2051 61.52873640879809 66.51398637176266
 259.2051 61.614849499139815 65.74934220998375
 259.2051 58.778070278739534 64.72138972819965
 259.2051 55.694651282331755 65.2101366027963
 259.2051 53.81584506701277 66.74545176589663
 259.2051 51.51548402381511 67.08184986643892
 259.2051 48.71170940253459 67.47253706012708
 259.2051 8.189691237374229 42.20040460601541
 259.2051 -149.55619707871455 -5.75989850247646
 259.2051 -148.93979159794796 30.972731312647056
 259.2051 -147.19866614782833 74.12563840195895
 259.2051 -145.05864439145859 119.41960212976943
 259.2051 -155.46252039278812 38.47217694591649
 259.2051 -157.5571383279414 41.15115332677857
 259.2051 -160.9333829340974 38.80961620710002
 260.9971 167.63821401824814 -121.48947503803396
 260.9971 170.2485782870082 76.1804666579066
 260.9971 166.3400675728811 43.042868760600356
 260.9971 165.58495235017918 42.85105802060059
 260.9971 162.79382975853466 42.48077765534214
 260.9971 157.379517571832 46.62937033805645
 260.9971 153.91744090914145 34.22311942429059
 260.9971 150.9008545470129 13.874494619748475
 260.9971 151.0044800437936 39.5852458395766
 260.9971 149.45301768834733 68.42060246578689
 260.9971 151.52302735046192 112.8885179023178
 260.9971 149.55625464444032 161.88180312779645
 260.9971 151.73064269043394 222.55960049014232
 260.9971 150.69368730416895 294.2028955239346
 260.9971 76.04799965018 74.78110969808802
 260.9971 73.1359077985693 74.62171910077825
 260.9971 70.23634251654977 67.93809845182113
 260.9971 70.23634251654977 69.18809845182113
 260.9971 66.47601350397456 66.64015425764035
 260.9971 64.03779561217456 65.57565765818953
 260.9971 60.914354971915024 64.86075152655656
 260.9971 61.347420726691276 64.2880950021933
 260.9971 57.19952419659588 63.713618496225536
 260.9971 58.666169100266366 64.22996996147867
 260.9971 56.76864551876105 65.28117514136989
 260.9971 53.67265837970313 65.00204485558191
 260.9971 50.92964466576688 65.39782081958504
 260.9971 48.109257715401725 66.7836865038509
 260.9971 49.81759837558586 66.80251995040118
 260.9971 48.109257715401725 69.0336865038509
 260.9971 44.53116074258855 73.24232273764454
 260.9971 -149.24662641238 -13.751894728665263
 260.9971 -145.3458549605686 64.44656202899591
 260.9971 -146.06149923786973 100.93315945181502
 260.9971 -152.35416493522686 38.8220706049791
 262.7891 167.91732163135043 -124.92584544405008
 262.7891 184.40036691024685 40.071990200189646
 262.7891 179.30726602846852 40.28803091935839
 262.7891 178.85809423576052 53.981252657346715
 262.7891 171.5274277694041 81.58301594947176
 262.7891 167.80848131127448 45.118732071192596
 262.7891 164.01926161352097 43.9067206339854
 262.7891 159.94868131044603 43.778354218388415
 262.7891 159.6291995696954 47.404274753831544
 262.7891 150.16748763955027 16.792495281031165
 262.7891 149.4412223468292 44.56438147531111
 262.7891 150.58310439994656 80.13642536767958
 262.7891 151.20736317274876 122.90135408715395
 262.7891 149.95984534817498 181.62033740427142
 262.7891 151.31150390052667 267.1120625517129
 262.7891 79.78382580093934 64.75752306163645
 262.7891 79.69433862837244 66.7767237966184
 262.7891 77.55040482981516 65.98068838295342
 262.7891 76.30305430932975 66.73945079866229
 262.7891 74.17020940513751 66.67274127623415
 262.7891 71.336839523186 67.2303684196931
 262.7891 69.13126204764039 65.90016925377444
 262.7891 67.37167257511076 64.72607929566243
 262.7891 63.95244734795584 64.58642025778028
 262.7891 61.15824234300668 63.81255716647837
 262.7891 61.85586713756678 63.19559458998884
 262.7891 59.85182128164668 63.52815495381401
 262.7891 55.42525050397767 63.47524775145121
 262.7891 54.47346704934214 63.11836564516972
 262.7891 51.537901509290194 64.04462190972248
 262.7891 51.71032428577035 64.02021958871023
 262.7891 50.073569494388664 64.24866523993109
 262.7891 46.72245820292001 67.19403041321323
 262.7891 47.75237985931226 70.0603571014758
 262.7891 44.49444222368509 71.97344912788174
 262.7891 -149.54489188395428 -1.7243632717261903
 262.7891 -147.68302305568065 20.468161710858
 262.7891 -146.44665274841574 54.42413506529044
 262.7891 -144.70170515517162 117.31234740230622
 262.7891 -160.16182023502543 39.444237460687134
 264.5804 184.85475724090185 51.835478857179794
 264.5804 170.7095971976039 63.105591730851586
 264.5804 166.54973489706356 47.056381791049205
 264.5804 165.13729772433493 46.62647407380331
 264.5804 163.94632615491108 43.85423862294982
 264.5804 161.14625100030733 44.71683354532445
 264.5804 156.66633898888728 33.715411242194534
