ply
format ascii 1.0
element vertex 984
property float x
property float y
property float z
element face 0
property list uchar int vertex_indices
property list uchar float texcoord
end_header
 415.3226 14.448516414117764 4.24384624668204
 415.3226 -0.9276141974131291 25.67664325929519
 415.3226 -35.17804211270736 62.59050361497401
 415.3226 -36.643681925503884 64.99818004415289
 415.3226 -39.043444543956774 61.83892666430512
 415.3226 -43.982367607659384 61.47961317109571
 415.3226 -46.25456770808848 58.55006605919215
 415.3226 -47.72587764936865 59.929024998095485
 415.3226 -52.54728192685645 60.75609712627937
 415.3226 -56.03572533844528 58.675034882924194
 415.3226 -58.85746515458878 59.891890249425956
 415.3226 -60.06797014636573 59.01622181625419
 415.3226 -65.32217865091577 58.19158651373181
 415.3226 -67.2119093511768 59.22334460299527
 415.3226 -69.64450553238895 65.68342161609883
 415.3226 -72.35141288538435 65.34893898549211
 415.3226 -76.28429014850472 66.0907536593179
 415.3226 -79.1383092894271 63.20554312936798
 415.3226 -82.8156209099012 60.93890830918667
 415.3226 -84.58944737512934 59.931547451648896
 415.3226 -89.92426677322432 59.12567824590252
 415.3226 -90.60971172136752 61.51867984164403
 415.3226 -95.2801282782197 59.01875668360111
 415.3226 -99.27712856028307 59.84816486669928
 415.3226 -100.52018112271429 59.88421967422249
 415.3226 -105.36643494640701 63.025781892663645
 415.3226 -106.19921173129461 62.874379721676235
 415.3226 -109.1186560843638 59.58463839665927
 415.3226 -113.58186515581941 58.982590533761424
 415.3226 -153.7952947770391 17.372069585532984
 415.3226 -149.43277952234172 103.48263172802928
 415.3226 -157.44799478522725 27.169882713760785
 416.2186 195.51622345244817 40.98805183749727
 416.2186 192.59230834473138 42.91315535754154
 416.2186 181.01396629518297 40.207242032703846
 416.2186 179.80573527187866 38.56598978325633
 416.2186 174.99209991164116 37.47420296926168
 416.2186 164.12203363093136 43.52902301707246
 416.2186 164.7137965846334 115.61722912182069
 416.2186 139.20698953196677 76.85943344665031
 416.2186 135.3364058578198 63.25698227282351
 416.2186 133.90689558645175 62.58253205851446
 416.2186 130.20013013993395 64.41169775717805
 416.2186 127.074610844879 65.09395367225909
 416.2186 121.27564615544928 65.06858671987015
 416.2186 120.147949588936 62.300486221280266
 416.2186 115.6491704253557 62.955253719437735
 416.2186 113.68685320523421 62.08966798735247
 417.1146 110.00894657144343 61.919315930643734
 417.1146 106.51799499440763 63.81551192960393
 417.1146 105.12453985166192 65.56789567176867
 417.1146 101.50915503939721 67.70788885937787
 417.1146 97.35076293325997 71.41743434581844
 417.1146 95.55303782583022 70.4653448619822
 417.1146 92.7921592350027 70.66244445882523
 417.1146 87.97427744859449 63.91231904499648
 417.1146 85.91459370037708 61.221084899621246
 417.1146 81.5304145594446 59.60466375518132
 417.1146 80.57310203208341 59.48871794826414
 417.1146 76.4770733378707 61.04486577515621
 417.1146 73.07175380799065 61.23566662346485
 417.1146 71.16783021987803 62.973561398894844
 417.1146 68.31589933880288 61.318398262108815
 417.1146 63.1667413507468 64.40593705300284
 417.1146 60.19202946613103 62.22473440608297
 417.1146 58.301335610754336 63.66948569065505
 417.1146 54.7945772175238 68.26446803050686
 417.1146 51.966285439949914 152.0273100720155
 417.1146 21.840983698979198 54.4678870230498
 417.1146 12.513005749783472 -11.25168654061224
 417.1146 -33.45733809059684 63.15632433213523
 417.1146 -37.20334818783801 63.92514371184234
 417.1146 -39.61377386810818 61.013502353879346
 417.1146 -41.08775021715943 60.909693302952974
 417.1146 -44.03796419985905 58.94060975580112
 417.1146 -48.738162118887914 59.31047533041027
 417.1146 -51.697107129608206 60.55160819068743
 417.1146 -54.92934703587886 59.75160006573657
 417.1146 -56.95189881096011 61.30473695536881
 417.1146 -60.597407958479934 59.43218121579133
 417.1146 -62.6255473302451 59.465062260502805
 417.1146 -67.50190980277107 58.66428396802996
 417.1146 -68.85876595192549 60.00382352604595
 417.1146 -73.61612942928933 61.91651764964132
 417.1146 -75.25033691493948 63.20592029477956
 417.1146 -78.52373970391332 61.02050961471622
 417.1146 -81.53041455944455 65.10466375518132
 417.1146 -85.0915544426132 58.84248239784944
 417.1146 -88.93649890331038 61.265645124394325
 417.1146 -90.72526425810763 58.23887720063726
 417.1146 -95.69123518613796 61.442633115986496
 417.1146 -98.04287042823657 62.55131774108543
 417.1146 -101.64800877434412 61.683705137804395
 417.1146 -104.28925363837277 58.467660790475236
 417.1146 -107.49439977759621 59.38677472258837
 417.1146 -110.98832268812156 58.734464527009095
 417.1146 -113.2301046085163 58.3054821574903
 417.1146 -117.58657551719801 64.69859258971269
 417.1146 -152.26541306186684 17.054502278275777
 417.1146 -151.68143735532752 108.70290340454994
 417.1146 -158.12733852104884 27.786162516071272
 418.0106 195.5840632269977 34.30305590787316
 418.0106 183.92156629740774 50.15841058398962
 418.0106 180.4283348146874 38.950585936196205
 418.0106 176.04676754326638 38.73287662846451
 418.0106 173.03953647210378 37.84680191700875
 418.0106 163.9380018611692 66.13051623970506
 418.0106 166.61289983512276 150.1485796649868
 418.0106 139.08525313707875 66.1646426947022
 418.0106 135.91908726441054 62.39706662328956
 418.0106 133.04990895998108 61.7972577698219
 418.0106 128.76201776163802 61.744836952157925
 418.0106 125.77150226373737 63.88852080268998
 418.0106 123.7827261954378 67.05873195617147
 418.0106 119.67525539568469 63.90665032879531
 418.0106 115.30204180381867 63.5297233056271
 418.0106 112.63033082990698 66.2979535547837
 418.0106 109.68478971897505 65.60591755041918
 418.0106 104.79223797177754 66.00154056427738
 418.0106 103.25875132040522 65.02421978305495
 418.0106 99.22514650939944 71.4730634221794
 418.0106 96.03529767285383 70.5067766841521
 418.0106 95.89678864009713 69.27957133217916
 418.0106 90.92015035601783 61.07752582135623
 418.90659999999997 87.24863847111853 60.7577603189103
 418.90659999999997 85.45712319892432 59.773446882087
 418.90659999999997 82.29291077251489 60.229629960312764
 418.90659999999997 78.72397790785672 59.724062116184655
 418.90659999999997 75.29997389551534 62.928322602293235
 418.90659999999997 72.7025413108777 61.75975758116732
 418.90659999999997 70.24549836983162 62.06279847416556
 418.90659999999997 66.15804229790291 61.044293310996295
 418.90659999999997 64.38964571572816 61.243824841871
 418.90659999999997 60.99347046288589 63.36210955612796
 418.90659999999997 57.0610988527003 62.513981854234316
 418.90659999999997 53.40643941104937 62.11378146545508
 418.90659999999997 53.27119671687402 154.6262872687929
 418.90659999999997 20.997403666077002 51.20915065447923
 418.90659999999997 -14.17187505648705 52.16831660485656
 418.90659999999997 -31.58731194116231 63.72432721204012
 418.90659999999997 -35.750339792487566 62.73047754074736
 418.90659999999997 -38.03543303624089 61.08387902378473
 418.90659999999997 -40.99506875582823 62.1305940857938
 418.90659999999997 -44.361910655655926 58.13096222748038
 418.90659999999997 -48.54260478326946 57.793814254970926
 418.90659999999997 -52.324721170767084 59.96292997754415
 418.90659999999997 -54.62398786714095 57.999784954100676
 418.90659999999997 -58.009610214264455 59.41946347837387
 418.90659999999997 -59.63663109214908 56.50375445662911
 418.90659999999997 -63.438117132128184 60.09898864889277
 418.90659999999997 -65.8858722430412 59.82534854850968
 418.90659999999997 -69.97270915661795 63.345813702214286
 418.90659999999997 -72.97576480791689 61.72542944694072
 418.90659999999997 -74.34255146199956 61.55181408895953
 418.90659999999997 -77.76451479741527 64.1033407453798
 418.90659999999997 -82.7052507994632 60.17113091723775
 418.90659999999997 -83.53027305101051 60.303231000463654
 418.90659999999997 -87.66238460217686 59.69564108917194
 418.90659999999997 -92.36011782199718 58.720389872341684
 418.90659999999997 -93.46782362924641 61.54405047539058
 418.90659999999997 -95.54726660131338 62.70754178653675
 418.90659999999997 -99.7161878861037 59.26144090495097
 418.90659999999997 -103.34047528152362 58.383101055031716
 418.90659999999997 -106.13575210746643 59.633823192444595
 418.90659999999997 -109.63916699063992 58.74010430099463
 418.90659999999997 -113.15328452129496 61.07443563823688
 418.90659999999997 -151.6005414543408 6.511766442133705
 418.90659999999997 -150.4297497242188 89.30642321509492
 418.90659999999997 -155.2695227585466 70.57490221675477
 419.8019 177.25521682196722 -171.30252228166302
 419.8019 193.01227062807706 37.19790249265196
 419.8019 185.16853107127238 41.35645046244758
 419.8019 180.4410284439509 39.26583292654436
 419.8019 175.44067184968134 38.97155113929347
 419.8019 171.97459165165066 38.70930363184709
 419.8019 165.38584365969933 181.78838704352188
 419.8019 140.40544727890529 58.13260151955569
 419.8019 137.36767949960992 66.8390712193177
 419.8019 133.18858797669137 61.537517475318
 419.8019 131.32104623145514 60.4525341387652
 419.8019 127.31058775053509 63.075250364629426
 419.8019 125.45400888498845 61.7206732770253
 419.8019 119.62038826585511 63.17757449094944
 419.8019 118.62761822467104 63.62756997624638
 419.8019 113.53621272698612 64.37844207720832
 419.8019 109.73285164472244 62.0989019682828
 419.8019 108.1869425476704 60.63505763982988
 419.8019 104.12106702217626 64.61916183095099
 419.8019 100.34784332986227 66.77633687055226
 419.8019 98.39584860272208 68.35717369209783
 419.8019 94.3618502045161 67.77106029826263
 419.8019 93.66758592111583 64.88261577464971
 419.8019 90.34009168138284 62.406235860742186
 419.8019 88.26449109637376 63.47357759651874
 419.8019 84.39813657170725 63.5456403857778
 419.8019 81.09220181207391 63.765038668618615
 420.6979 78.0970461429624 62.03963355928431
 420.6979 73.28781882544821 62.66438239437167
 420.6979 71.9163018583232 60.0854366927889
 420.6979 68.90277968799406 60.20015993262484
 420.6979 65.48444918501245 62.34533363458621
 420.6979 63.57291169647739 65.30770326091113
 420.6979 59.210664840922476 64.26915076788765
 420.6979 56.48895057583576 67.54068326620705
 420.6979 22.16311444027782 52.12584493289853
 420.6979 13.426452478613909 -12.104383925317677
 420.6979 -6.980492358386781 46.259796313622815
 420.6979 -9.397328265995965 46.72543499598174
 420.6979 -14.232475867714866 49.12626792511327
 420.6979 -33.070511495174465 63.35363681483403
 420.6979 -33.8796241863169 64.8067137649781
 420.6979 -36.982949863332145 61.1162783043232
 420.6979 -42.38715435745581 61.24508236093561
 420.6979 -44.010337583734355 57.37379099809124
 420.6979 -46.71777206199647 58.66142279917494
 420.6979 -50.3772880738831 57.85441911397152
 420.6979 -53.49899139635373 59.57443756860812
 420.6979 -56.080991242838046 59.33029703999665
 420.6979 -59.34684296152695 58.75523402950205
 420.6979 -63.027106774976716 58.36720603050452
 420.6979 -67.12445402539339 58.90820501695879
 420.6979 -68.49224182498108 61.74866230079863
 420.6979 -71.50506079580674 58.636109786468865
 420.6979 -74.79777528370182 59.722406912520114
 420.6979 -76.58404719619598 60.99036124955336
 420.6979 -80.02476902368106 60.52833783775924
 420.6979 -83.33504170917813 59.8151727138918
 420.6979 -87.62172518327166 60.68829925302896
 420.6979 -91.36579315810773 60.11586031394842
 420.6979 -94.42407218603918 59.631101987124566
 420.6979 -95.53790817883134 61.45072677269724
 420.6979 -100.28238269860528 56.909606252338335
 420.6979 -104.20304152457082 60.72809443928776
 420.6979 -106.44908503027638 60.32640638061196
 420.6979 -109.2626174722487 59.811689691193294
 420.6979 -112.93043605332609 59.37149144335359
 420.6979 -117.60301315974968 62.21090596350439
 420.6979 -153.13169536843594 4.91315696328968
 420.6979 -152.10174409060346 72.42385877928871
 420.6979 -156.3766993230111 38.08130771414159
 421.5939 196.16928468992685 35.289384503845895
 421.5939 189.964253259651 22.472362747992577
 421.5939 190.89164620795353 48.686892509560266
 421.5939 185.8053365591551 58.487635000100795
 421.5939 180.75339568747287 39.24153472691859
 421.5939 179.9908755400261 36.21535672854458
 421.5939 173.46409763562315 35.59685817348526
 421.5939 165.7923405541267 57.97914249941459
 421.5939 166.84101067545345 139.692772938696
 421.5939 167.29085495149315 252.8194333933464
 421.5939 138.6795294329148 66.06089257548786
 421.5939 136.50477164280557 66.81031358068321
 421.5939 130.5852654626829 64.88246161399087
 421.5939 128.28479109299346 62.38150981976156
 421.5939 126.41950059273162 62.78005120597459
 421.5939 120.70114407568313 63.717630660689224
 421.5939 120.13100943210618 64.83319554337385
 421.5939 116.00649111056657 64.90381322567373
 421.5939 113.59582850978113 63.62086051449444
 421.5939 107.80280160704534 64.95505579745094
 421.5939 106.253448672781 64.23585239177447
 421.5939 103.16071423151467 64.53473575125429
 421.5939 100.07573132109353 65.06675908004235
 421.5939 95.32269599327114 65.85604707704101
 421.5939 94.06742287747701 64.05832114298693
 421.5939 90.30858383710925 62.398527435603455
 421.5939 87.1146100790721 61.13173223497586
 421.5939 85.03540896659281 61.43721947167501
 421.5939 82.54422914260881 63.543795283130066
 421.5939 77.57400803310126 61.97435937106479
 421.5939 76.74715546530727 62.833580787087556
 421.5939 70.97070770681889 60.56467934730614
 421.5939 70.14709003773936 60.91436046349935
 421.5939 65.21326811962068 64.23758350973833
 421.5939 62.20451544516835 64.06698536835626
 422.4899 59.32612870590078 65.47817510694989
 422.4899 57.549195806815796 63.40647919416227
 422.4899 26.716966003564313 57.89344905603707
 422.4899 23.338238587277377 47.53947360629047
 422.4899 -6.740568201639661 44.220821510630685
 422.4899 -36.05614589002439 63.887657673912486
 422.4899 -36.73381486728689 62.3451275189762
 422.4899 -40.531372013046735 61.342229954217885
 422.4899 -42.70351206856628 61.186475552447746
 422.4899 -47.460896625635556 60.817173522404914
 422.4899 -49.638554132375845 59.635244244013904
 422.4899 -53.86327464434842 59.259270968664566
 422.4899 -57.002744359847526 59.710236801905694
 422.4899 -58.5058206733042 60.0611523142195
 422.4899 -61.515204669770334 59.50116930637415
 422.4899 -65.07756513232545 60.364451307387355
 422.4899 -67.54769167458527 60.08374450381359
 422.4899 -71.25913848754588 59.39268817105909
 422.4899 -74.42694594320615 60.747965882571805
 422.4899 -77.60074245035725 60.58567244944021
 422.4899 -82.02692552507182 59.73265938164866
 422.4899 -88.82965040619811 60.49252034446596
 422.4899 -91.89442859080326 56.521480918216525
 422.4899 -93.98795936651565 62.44084148136898
 422.4899 -95.24563725977764 61.98875571530317
 422.4899 -99.44658709727263 60.044991073697304
 422.4899 -104.22444303251223 59.22101675273257
 422.4899 -104.64690361756448 62.14637801102708
 422.4899 -109.16238605693948 62.58058039454039
 422.4899 -113.69530667652201 64.47861794671309
 422.4899 -117.81899416008744 60.92500118373749
 422.4899 -151.4215619185805 8.132047073561523
 422.4899 -151.1267062925895 95.4557943709205
 422.4899 -159.56949288557908 24.54238863475757
 423.3859 171.32252558439734 -173.9924345772003
 423.3859 194.66008589030199 33.847108302662946
 423.3859 186.74938150420144 52.27621891384672
 423.3859 181.06214610280688 40.46799961870988
 423.3859 177.0908111154293 38.621965619519585
 423.3859 174.65692953887228 38.81796992059964
 423.3859 168.75541564808 32.71991956706876
 423.3859 165.59544142696802 163.33354253034906
 423.3859 138.5404368485562 65.86754263940901
 423.3859 133.60082355125468 64.98581753533324
 423.3859 131.1403228193219 64.27872836787958
 423.3859 126.38116297265343 60.80203095068384
 423.3859 124.0815970822664 64.03375357166135
 423.3859 121.07102051390332 66.65182894222954
 423.3859 118.78290916430663 64.11199689575761
 423.3859 115.78700557753226 64.70194838293912
 423.3859 110.52785758108264 64.45296059402733
 423.3859 108.26102128356301 62.87075852699479
 423.3859 106.42240169198315 62.453561621142455
 423.3859 102.19002736136025 65.69891456812007
 423.3859 98.67397073090574 64.7960460452137
 423.3859 96.98967362356333 65.32496717496997
 423.3859 93.34770950892728 64.16225147670679
 423.3859 90.97170564296839 64.78369262293779
 423.3859 86.64932030500346 62.43563012447743
 423.3859 85.25775791206709 59.888967181045416
 423.3859 81.64575020812116 62.15182418315254
 423.3859 78.59603808000864 61.56800964580003
 423.3859 73.47993773598492 61.231445439829145
 423.3859 73.06580390785567 61.78323901284091
 423.3859 69.34302593548264 60.73595106659269
 423.3859 64.25380747905653 63.31723792034023
 423.3859 61.09701403006369 64.1559139353559
 423.3859 59.31491497839024 66.0896855189896
 423.3859 57.67124388285953 67.7544273471429
 424.2819 21.538089711912548 35.81893367657591
 424.2819 19.097256772870406 43.404247818928525
 424.2819 -12.592554489674882 46.58160975812615
 424.2819 -31.448921821992627 61.61751017296268
 424.2819 -34.4402932311871 63.94820423578045
 424.2819 -38.251125149172566 60.96036550170538
 424.2819 -41.793762982311854 59.46703616462753
 424.2819 -45.204132264302444 59.21259322261483
 424.2819 -46.842594558033454 60.58331378275159
 424.2819 -52.17477482478482 61.38103668106004
 424.2819 -53.26998970199623 60.03217405031114
 424.2819 -55.87320061714948 61.0390433562643
 424.2819 -59.85242923893436 60.89527723808891
 424.2819 -64.38978605439685 60.913731793132456
 424.2819 -66.59348646806122 58.41737527710421
 424.2819 -69.7658508788864 58.048438859412954
 424.2819 -71.83778355382843 59.29839287676322
 424.2819 -76.54336703129226 60.203916810674116
 424.2819 -80.42863271673228 59.685329322283906
 424.2819 -83.34887189433907 59.02908759579918
 424.2819 -85.02009055231889 60.54026162699637
 424.2819 -86.83269389159011 60.276025729507126
 424.2819 -90.74446815747646 59.43736716919153
 424.2819 -95.9304548029455 60.11831546978368
 424.2819 -97.61669137934749 61.592544279149706
 424.2819 -99.44589959520245 59.788161827550766
 424.2819 -105.51516515610426 58.48938996353513
 424.2819 -107.63938975458588 59.60827809612323
 424.2819 -111.188185858426 64.70541303378212
 424.2819 -113.60754448352192 62.99877249709698
 424.2819 -117.88961320203795 61.91769190051838
 424.2819 -151.61969737708844 26.868886039286224
 424.2819 -159.9473994645218 33.48775006645599
 425.1779 197.20873812531667 33.88050126256866
 425.1779 190.17844428916825 23.310649980856738
 425.1779 189.24609893151234 49.09460130660722
 425.1779 187.53980672066598 55.86110313954623
 425.1779 180.9063398695748 39.83001871732756
 425.1779 179.83187231283495 39.143053236656954
 425.1779 175.85388141387895 34.03761026423189
 425.1779 166.29633163383872 59.44406465263597
 425.1779 165.54257020775023 143.64790199233022
 425.1779 137.8112695641129 64.55829498328302
 425.1779 135.62265616843402 64.80401498989698
 425.1779 133.72980540953665 64.97678568319168
 425.1779 130.09978897506923 63.272029896024776
 425.1779 124.60677806248191 63.93639041289862
 425.1779 122.30252159823482 63.16075980678329
 425.1779 118.42523360053967 63.69009539974593
 425.1779 114.41866831036569 64.72043254403422
 425.1779 113.41924323140273 62.411112286903915
 425.1779 110.1414956070107 64.27529875746063
 425.1779 106.58902830966639 63.171559677874825
 425.1779 102.48112523899675 62.39358642257929
 425.1779 99.37373054653612 62.671669116838586
 425.1779 97.11849416977627 63.0451386966796
 425.1779 95.57025184991 63.546747819361144
 425.1779 91.91780408780569 62.87485043902757
 425.1779 88.13498857356903 62.20061089461251
 425.1779 85.61861523437857 63.82061902440728
 425.1779 81.71265257612669 62.87431648063097
 425.1779 79.34598109458027 61.947561036182776
 425.1779 77.81647603309466 65.40153504963871
 425.1779 73.65230482367085 65.68720848093267
 425.1779 70.74341548432494 60.29430113128694
 425.1779 67.977449155702 63.62076392185469
 425.1779 64.52576462973744 65.26022566592468
 425.1779 60.25410953738447 65.71455983440677
 425.1779 57.3654119096263 67.25442328192219
 426.0739 -9.92540929165826 46.59165631744315
 426.0739 -17.680459156894504 52.65820542569452
 426.0739 -34.722358997866635 62.143799814962165
 426.0739 -37.18212947273332 63.74257045654724
 426.0739 -40.32780793224453 59.03418160823907
 426.0739 -42.79185839830967 60.8592124894613
 426.0739 -46.62899975514187 58.56624660143581
 426.0739 -50.059640122858546 61.28321900121057
 426.0739 -51.98283092015264 61.11585845762983
 426.0739 -54.87050762613222 59.60285087873075
 426.0739 -57.48630109288587 59.10248544192774
 426.0739 -60.65698652705213 60.28359203693219
 426.0739 -63.55618359018637 61.47724591324953
 426.0739 -68.25919190727458 59.45039510230902
 426.0739 -69.36748815269294 57.57086436914534
 426.0739 -74.64127873924899 58.67649393562226
 426.0739 -76.03179333471667 60.24890308660082
 426.0739 -78.53765065169823 59.92078164881184
 426.0739 -81.88484999445033 60.71630923840752
 426.0739 -85.09933946827903 62.01248129409419
 426.0739 -89.58319615263089 61.101110675062216
 426.0739 -92.53333524476417 58.89802903893565
 426.0739 -96.33562734272832 62.29316106494542
 426.0739 -96.8998403850906 62.701404785321586
 426.0739 -100.2901967744664 59.1391811904507
 426.0739 -104.11505040646564 59.98261776022474
 426.0739 -107.9516861989318 61.80039678180128
 426.0739 -112.22900832157421 64.26204385038312
 426.0739 -114.23045394229864 57.88314502283134
 426.0739 -119.3932862310611 52.37643150813972
 426.0739 -152.40872064453646 40.458035115670555
 426.0739 -159.57317688754108 38.62937934040997
 426.9699 175.6760437498556 -179.85187534817936
 426.9699 196.93725008047622 33.2993077076668
 426.9699 186.31019327297633 51.052174734099026
 426.9699 183.3674054356503 38.92498434267179
 426.9699 180.28180006082314 39.82698700661092
 426.9699 176.59505388661017 35.386936211308466
 426.9699 165.33286356490086 64.75357020200812
 426.9699 168.05809613930518 148.26629077013257
 426.9699 139.56631708745326 65.1798094454752
 426.9699 136.48702598925237 65.6307286950398
 426.9699 132.83372759970928 63.94341288522219
 426.9699 129.04831740418976 62.76374203287031
 426.9699 127.16083146666101 63.164469352143044
 426.9699 123.8297355515125 62.60814205827734
 426.9699 119.35630477004311 65.01237080847528
 426.9699 117.91714584588749 63.79658418254053
 426.9699 112.60816312043393 63.066730416473945
 426.9699 111.17749113877099 62.08399614203904
 426.9699 107.89349195252761 65.68515610323493
 426.9699 102.91305308949953 65.31395535960371
 426.9699 101.63556928945725 63.53295155063876
 426.9699 98.09364031402227 61.626383613608766
 427.8659 96.74079988251098 61.21800666010711
 427.8659 92.78130099978272 61.59742999142361
 427.8659 87.84760598779104 62.09609931477485
 427.8659 85.59775714496443 60.92433417721884
 427.8659 82.22924483109719 60.15029475396062
 427.8659 80.26764052210633 63.16889121407934
 427.8659 75.65324582221328 62.77576959656068
 427.8659 73.00221025127222 61.35854444832046
 427.8659 68.96355994888566 58.84314567140552
 427.8659 67.71199804145661 60.4878308768258
 427.8659 64.37851777139308 62.610489076398494
 427.8659 61.18919776946658 65.19970448601669
 427.8659 57.58975006348675 64.81213795423304
 427.8659 -31.57751371449781 62.283715953543094
 427.8659 -35.00557904181877 60.589295079790986
 427.8659 -39.673058283201726 58.79256609265059
 427.8659 -42.971834243461814 58.560622406335085
 427.8659 -45.035434228389065 58.15618148369418
 427.8659 -46.96283028232639 62.7554462870462
 427.8659 -51.09768966034353 62.41096248587502
 427.8659 -53.71997270408035 62.927597262558265
 427.8659 -57.3131172878739 63.339095710425624
 427.8659 -59.66561430892904 59.8557600123176
 427.8659 -61.88210347293382 59.8774499919129
 427.8659 -65.7667692866168 59.20753948591283
 427.8659 -68.96355994888562 59.09314567140552
 427.8659 -73.28107548190015 59.824086219653054
 427.8659 -74.81563502183057 61.63216660592798
 427.8659 -77.88891334908702 60.986117549826815
 427.8659 -82.22924483109735 58.90029475396062
 427.8659 -83.63189445502469 61.704362906040785
 427.8659 -87.84760598779086 60.59609931477485
 427.8659 -90.94679730629592 60.3804337113786
 427.8659 -94.19409657229133 60.87575846313052
 427.8659 -96.45759651823225 60.763868743390844
 427.8659 -99.43423620965855 64.77535821657528
 427.8659 -104.12559517017924 60.47647859585271
 427.8659 -107.54849578151256 63.62133995542973
 427.8659 -110.26511204786648 64.6277560525993
 427.8659 -110.98103603759388 64.49572375625962
 427.8659 -118.74124353083762 65.76247406564823
 427.8659 -151.70722280003523 28.41828793855683
 427.8659 -159.64249953092613 29.654355628294354
 428.76189999999997 178.72253227612322 -180.16001954622436
 428.76189999999997 196.184838094226 35.86632206919677
 428.76189999999997 186.62478449084347 37.77903403735701
 428.76189999999997 181.19308239474174 39.876982132490355
 428.76189999999997 176.56709643320286 37.20493821443597
 428.76189999999997 175.79870440572114 38.92255977164649
 428.76189999999997 170.89821047077973 38.54051996399403
 428.76189999999997 168.76343885381885 193.87560290913837
 428.76189999999997 138.97293763321474 64.83930801152394
 428.76189999999997 134.71038917406892 64.79807109372791
 428.76189999999997 132.65911326321466 62.249530968786814
 428.76189999999997 126.96643786242664 63.218423049843295
 428.76189999999997 125.36640409858947 63.80197705039069
 429.6572 120.8323347866613 63.85505957362744
 429.6572 117.6466613157266 62.98346446034623
 429.6572 116.20159713160237 61.51326998104463
 429.6572 110.00825753529567 60.92520463008742
 429.6572 107.28188057540737 64.66745674392655
 429.6572 104.41851373557522 62.171714833018655
 429.6572 100.42064467644998 61.1038695733418
 429.6572 98.56866236429396 61.66119480172125
 429.6572 96.2928262035765 60.53130805569276
 429.6572 91.4691760697056 61.28815951726682
 429.6572 90.19508471350234 61.48178818988822
 429.6572 86.09722462932271 63.586693535412905
 429.6572 82.43272269080343 61.85447703003092
 429.6572 80.46308015782746 61.37372096714637
 429.6572 78.49584347364217 63.38629728424462
 429.6572 74.70845332828289 62.37393768710609
 429.6572 70.23038162560749 60.170049154855576
 429.6572 66.7395130623369 61.822802361931565
 429.6572 63.11570259994192 61.96954219445951
 429.6572 62.001998593996355 64.83709346462882
 429.6572 58.94236889439143 65.149420049598
 429.6572 -0.9596302217620043 43.59201714086271
 429.6572 -5.2096013628560005 46.0697286232122
 429.6572 -10.420321839396617 47.00050210257501
 429.6572 -15.633281505134025 49.13508325102765
 429.6572 -34.60113412723286 64.57621574165682
 429.6572 -38.04628799210797 57.364002885773345
 429.6572 -41.90909895372085 56.85227186193947
 429.6572 -44.8094115486933 59.63925130160442
 429.6572 -47.43605140483224 60.684135103615006
 429.6572 -51.1731005271686 59.12236075520616
 429.6572 -53.3902669004839 60.17633332103628
 429.6572 -58.10868064294947 59.73182087096052
 429.6572 -61.445371981911435 59.64507272089077
 429.6572 -61.8628279514689 62.60163802751663
 429.6572 -66.18156887909647 58.885304958221184
 429.6572 -68.41432097701036 58.8820895107051
 429.6572 -71.76845218635091 59.9862058678832
 429.6572 -74.8485766880448 61.106316264699785
 429.6572 -79.6196877294866 60.237068956278904
 429.6572 -81.86971858027768 58.68208540889299
 429.6572 -86.23834240085696 63.56631632964127
 429.6572 -88.07408336500475 60.54828589624054
 429.6572 -90.19508471350233 61.48178818988822
 429.6572 -96.29282620357631 60.53130805569282
 429.6572 -96.71925304458568 63.962593899274225
 429.6572 -100.42064467644991 64.3538695733418
 429.6572 -104.84760092390997 63.59698205129598
 429.6572 -106.70867951689588 63.269446585825506
 429.6572 -110.00825753529541 62.92520463008748
 429.6572 -114.61412851637739 63.31686372710516
 429.6572 -153.84040093222052 -4.826471506793041
 429.6572 -151.59426766415393 77.9815615060927
 429.6572 -152.941277334136 76.64781001456362
 430.5532 176.3789319541228 -172.43196976130076
 430.5532 195.58035520911818 29.384840869878644
 430.5532 183.3490024096337 40.064854691624134
 430.5532 180.39862439715043 39.921184647492964
 430.5532 175.45415805073938 36.578619475420396
 430.5532 170.38655217153436 18.734853328354575
 430.5532 166.7204022415432 152.22912057008995
 430.5532 132.4786937794007 63.30676970094578
 430.5532 128.52061000991637 64.40514508706116
 430.5532 123.994417038818 63.595643950976466
 430.5532 122.82944938930642 63.83257140488547
 430.5532 118.32678254415349 64.72842683926683
 430.5532 116.44392201532344 65.34364356701741
 430.5532 112.687396649168 64.05565805152503
 430.5532 107.79290284557798 64.44996437815666
 430.5532 106.07011158476186 62.505715965976094
 430.5532 102.20244259377814 63.17492683253073
 430.5532 99.20225686187476 63.67759172929607
 431.4492 96.55173585818945 61.729658246365204
 431.4492 93.985563763092 62.13641362398897
 431.4492 91.8506726756438 62.7167362567115
 431.4492 87.02322109098186 61.686545135682934
 431.4492 85.1815519097284 61.95121059763068
 431.4492 80.51632050130493 62.34698752219305
 431.4492 79.24633997076093 62.51664379378769
 431.4492 75.44220251639766 63.509070017952695
 431.4492 70.66365003048811 65.3440312937218
 431.4492 69.1203421308843 59.77493806021704
 431.4492 64.21810679645101 61.5735410752734
 431.4492 61.003170501486416 60.16176307353089
 431.4492 58.90911318009402 64.12285812005695
 431.4492 -36.26721829957238 62.938715579000075
 431.4492 -39.17426260445575 60.753567352981975
 431.4492 -39.866789766161055 61.457368506874616
 431.4492 -43.054376590677784 60.9843535616684
 431.4492 -48.32842300495607 58.82800439715447
 431.4492 -49.996032527675105 60.6898470333382
 431.4492 -53.75216374597798 60.11167172935933
 431.4492 -57.37474531640026 61.5229147766924
 431.4492 -59.46733006186693 59.56729689710647
 431.4492 -61.98110167147408 63.310691813640176
 431.4492 -67.01786800997341 61.26507858081624
 431.4492 -69.82168685267247 59.69321221692877
 431.4492 -73.8947913161704 60.45259692394353
 431.4492 -75.58294464651786 60.49127344418201
 431.4492 -77.27275314915181 61.52506847366078
 431.4492 -81.08107460985896 61.0206972646842
 431.4492 -86.45631607835624 58.76860077405672
 431.4492 -88.58331389659136 62.95804473429678
 431.4492 -91.28190796628498 60.80349973636703
 431.4492 -94.41292998399453 62.06940770022652
 431.4492 -98.12231778166894 62.9754969349288
 431.4492 -101.55544652274196 63.65618039094858
 431.4492 -102.70181823468319 63.71188606073133
 431.4492 -106.00335098506078 61.89063306826
 431.4492 -110.61133903648768 62.06442259686611
 431.4492 -113.64487676230941 64.75220732744413
 431.4492 -154.93380905126446 -16.313653566178914
 431.4492 -151.32589301688438 72.58149886939697
 431.4492 -156.44137135161375 59.55659764852845
 432.3452 175.8751080182502 -180.48207916185999
 432.3452 197.18850644684403 33.71642935035942
 432.3452 187.2428033950907 51.73581343638233
 432.3452 181.77225725788918 39.588003701867365
 432.3452 178.97348297851536 38.891427978547824
 432.3452 174.02172897329774 39.78569085109376
 432.3452 136.57595307310297 64.9234324262298
 432.3452 134.94922596463547 69.03383512144131
 432.3452 131.11451263827686 62.36744220058506
 432.3452 125.53511266630935 61.290033066203364
 432.3452 122.90231655297359 65.07667614182651
 432.3452 120.42154897061216 64.32249832040247
 432.3452 118.23718287221963 63.25115500778725
 432.3452 112.57715038434833 63.827185836353124
 432.3452 109.97393251907276 63.05520452345684
 432.3452 106.07946813012377 64.00037184459705
 432.3452 104.49630427346179 63.026106859142715
 432.3452 98.75563801771153 60.492526772543215
 432.3452 98.75563801771153 62.242526772543215
 432.3452 95.32304721810307 62.54526236501289
 432.3452 91.61394043841882 61.62128461231862
 432.3452 89.3361680934151 61.96405071201718
 432.3452 86.6358618028732 65.35955439337874
 432.3452 83.23177328952885 63.09132428515181
 432.3452 80.11780045892978 63.76556269816069
 432.3452 75.59887499013197 63.85311892738656
 432.3452 71.6544970730632 62.58869349742395
 433.2412 68.56266714846475 60.813581859346755
 433.2412 66.17118793776433 60.58286473527528
 433.2412 63.642184358232456 61.607404050899845
 433.2412 -7.188618925690665 46.46523500989554
 433.2412 -32.94582572591341 67.09466279253388
 433.2412 -37.2516325042805 62.09044734866029
 433.2412 -40.588804784868934 62.37208705428185
 433.2412 -44.06875178440693 61.37457555419519
 433.2412 -46.85566550034697 60.16179534592965
 433.2412 -48.94768657602595 59.74357296248286
 433.2412 -53.27651746355327 62.37238635196667
 433.2412 -57.75307160610178 61.70584524183408
 433.2412 -58.17319443290727 60.665050365289346
 433.2412 -63.92302857532621 62.82743623987244
 433.2412 -66.73362466417976 62.270378763501924
 433.2412 -69.68910096728904 60.43349201784656
 433.2412 -71.09809510000017 61.51784161040763
 433.2412 -74.06051923877466 63.408961086584725
 433.2412 -79.57548518931155 60.702696348013035
 433.2412 -83.26229481180532 61.952960681278
 433.2412 -85.10889877260784 61.69437712263749
 433.2412 -87.81175231277554 64.3059505447921
 433.2412 -91.232844873937 63.79741341895067
 433.2412 -93.37510515114023 62.2193887208245
 433.2412 -96.80947502437431 62.9281637106302
 433.2412 -100.39609005547851 62.09282828576585
 433.2412 -105.14533484407083 61.03626113216046
 433.2412 -113.82645082251021 65.7198122388109
 433.2412 -151.6531540574975 -7.21541785049061
 433.2412 -151.803773030315 76.74766637990291
 433.2412 -156.3339115457465 61.12167916756238
 434.1372 179.09210096652558 -169.33203875940757
 434.1372 197.36781663516027 48.240863213162584
 434.1372 194.34464361956796 43.67047347243869
 434.1372 182.21292257745642 39.27414426762181
 434.1372 180.49497291501658 38.267868666139634
 434.1372 177.070007122702 35.98976355938731
 434.1372 171.6505272118707 14.743642498042448
 434.1372 167.1865584199804 132.70082874287203
 434.1372 136.10225320884126 68.54809781007168
 434.1372 134.02586389417928 66.00414945493281
 434.1372 130.62369191731648 63.48720698331948
 434.1372 125.173489825552 65.8746385930649
 434.1372 122.8250963430053 64.60065320797133
 434.1372 120.04280025283657 63.903588025700685
 434.1372 114.64401887976915 63.19221562667303
 434.1372 113.33455982414623 63.93728409236434
 434.1372 109.99463422115961 64.55020254171916
 434.1372 106.95305771062921 63.34312673431333
 434.1372 102.90898051301185 62.292399772720614
 434.1372 99.16496395293122 62.916695487672655
 434.1372 97.87139117923445 62.37721348540089
 434.1372 93.56821719638312 62.30831325591913
 434.1372 90.13503319582344 64.33046385808541
 434.1372 89.70645186948894 64.64431865271808
 434.1372 85.14249736811388 59.30597456647007
 434.1372 82.29684416768808 62.95151308140703
 434.1372 80.0239483068697 63.008026581366664
 434.1372 74.49666134458012 63.96841667231979
 434.1372 71.66891747693411 62.56261237293472
 435.0332 69.12897069667319 58.97280959173855
 435.0332 66.86844662409119 59.478652404136426
 435.0332 62.91870769921507 62.65559694713187
 435.0332 59.96131848725217 64.70851327224221
 435.0332 -37.96397941140607 63.25838370277364
 435.0332 -40.61699867734117 61.58386492621037
 435.0332 -43.69166732100589 61.616964648081705
 435.0332 -46.20965190109895 61.42764021036783
 435.0332 -49.570478891309506 63.908560307989376
 435.0332 -51.25248158823819 60.766869483710536
 435.0332 -54.19867692728782 60.5074101650269
 435.0332 -58.27318516319974 57.37497582072501
 435.0332 -61.79160016401993 63.022737846188534
 435.0332 -64.89261587491342 62.44542488246253
 435.0332 -66.72725080906628 62.244355384538835
 435.0332 -70.68463058828405 63.29189172217258
 435.0332 -75.35950917208287 62.72447522443497
 435.0332 -78.6250867006465 63.55703102575973
 435.0332 -81.46985839621932 61.92929020680856
 435.0332 -83.46414568845302 61.656677408643134
 435.0332 -86.88877203408077 62.923575352327134
 435.0332 -88.74695640513241 61.153548361721505
 435.0332 -92.1835275921525 61.639555459405415
 435.0332 -97.35378027342023 63.58068890108649
 435.0332 -99.80198308804869 63.68282409887729
 435.0332 -103.69950943182482 63.02981288638415
 435.0332 -106.30433722057616 61.33000114207272
 435.0332 -108.04385058136971 64.0236619110787
 435.0332 -111.09384380216144 63.475064680962475
 435.0332 -153.7939664729816 16.04162091425519
 435.0332 -150.61839229097376 144.31922837767246
 435.0332 -157.7409122359732 38.55443133548931
 435.9292 174.06551602454184 -174.36692784650717
 435.9292 196.10416335942776 32.458768125111476
 435.9292 187.53081157532463 49.288133172469315
 435.9292 183.27908969181533 38.7796288321278
 435.9292 177.95691271986706 38.798088893048885
 435.9292 173.13428749839824 38.63952944190993
 435.9292 168.49351977285394 188.6491445333025
 435.9292 136.96224450992622 71.62685045810258
 435.9292 134.72787179902065 73.3683561332391
 435.9292 129.82910395462622 64.6694664965944
 435.9292 127.46206285020853 65.41425424925853
 435.9292 123.47931856933647 68.227412674015
 435.9292 121.12589476825151 66.69644950925192
 435.9292 117.31192647031527 67.18840921076759
 435.9292 115.70208897513837 64.49481783360721
 435.9292 110.88558037395437 62.637482187259025
 435.9292 108.26637909211534 64.10769779862096
 435.9292 105.21752584489913 63.641491824713455
 435.9292 101.5973019449801 61.25631401672371
 435.9292 98.99684282253718 61.93516906416812
 435.9292 96.97769328042543 64.76076522610362
 435.9292 92.51705049315125 62.7070805384663
 435.9292 90.79405569118252 61.217547657674345
 435.9292 85.9229988142176 64.6782016494177
 436.8252 82.52034645050605 60.01749642706949
 436.8252 80.37659362211136 62.05585399157167
 436.8252 75.52750553569571 62.18075305780064
 436.8252 74.95791420587427 61.25166055009669
 436.8252 69.12985373889083 63.44694493142737
 436.8252 66.00995599549242 62.04644684104238
 436.8252 64.87665798580353 63.66947320228644
 436.8252 61.48048400353063 62.52558376928596
 436.8252 56.67831282258657 56.496894393481796
 436.8252 34.05825547368431 60.205955573570066
 436.8252 -35.738578526726 61.358117382312344
 436.8252 -39.52217353120017 62.87065936035117
 436.8252 -42.046939499217935 59.94900385284916
 436.8252 -46.68106530348534 62.356484829023714
 436.8252 -49.77467088900813 58.85808195385897
 436.8252 -52.87189381102627 60.09358130851575
 436.8252 -55.267825389601846 60.12813841193906
 436.8252 -59.07811167505754 59.26609096349716
 436.8252 -61.19771489418604 64.55438323470321
 436.8252 -65.15992321524477 60.63891954307553
 436.8252 -68.4203495808356 63.02781907757907
 436.8252 -71.54414252546509 61.41561356165755
 436.8252 -73.96156698755665 62.87443042720105
 436.8252 -76.23975314987626 62.34134748493955
 436.8252 -79.94817629620846 63.36259287786464
 436.8252 -83.52172947191303 61.38026511505814
 436.8252 -88.10755926239354 60.73124441116994
 436.8252 -90.54935360150908 60.37192218636312
 436.8252 -94.29166709285495 59.55275576265478
 436.8252 -96.74383917498729 60.917721591722625
 436.8252 -98.62192995211484 62.3663765680069
 436.8252 -102.38587830368024 64.49564251492285
 436.8252 -105.14320361125901 63.77673758009951
 436.8252 -109.36315499246112 63.535979245958856
 436.8252 -111.40545638619457 73.66747137997487
 436.8252 -151.99703855954343 38.516105299205094
 436.8252 -150.63269192934828 153.34714572102422
 436.8252 -159.6136180557618 31.117845314979547
 437.7212 193.87044798211633 41.21501298640919
 437.7212 183.40196368177027 37.807414854476065
 437.7212 181.04179920250036 38.48363434456945
 437.7212 178.21858946640484 35.78228572094389
 437.7212 166.55678113983998 48.961891081036185
 437.7212 167.9478075167803 130.84280141811917
 437.7212 136.9265025758293 71.40381769654039
 437.7212 133.93790164049935 65.30685926414299
 437.7212 129.61949637051902 65.22661930662463
 437.7212 125.91060475392833 60.24393383460654
 437.7212 123.83907336523082 66.16335974658949
 437.7212 119.70740411006629 61.73024766180964
 437.7212 115.73724397710625 62.490422897249346
 437.7212 112.21930196337888 63.143615833352726
 437.7212 109.7335430146796 64.34355621040271
 437.7212 106.66969791591214 64.13486697268775
 437.7212 104.04936423157908 61.58615994193303
 437.7212 100.27361876272802 62.46747251570838
 437.7212 98.24488828244608 63.04739943823478
 438.6172 96.12633682306483 62.004336146580386
 438.6172 91.20952787927449 63.25889977387982
 438.6172 87.60460098453831 63.78772892511819
 438.6172 85.01426443650844 60.65492563169954
 438.6172 81.42352911078703 59.646182892282866
 438.6172 79.1295535488027 59.94920156983085
 438.6172 74.6936711049119 62.01113798707826
 438.6172 73.26509958709197 61.18535417629329
 438.6172 68.13128780052013 61.53418345635498
 438.6172 67.13463116976149 64.89548652337521
 438.6172 63.43706043273975 62.044317760758304
 438.6172 60.31342054942008 65.11390134559122
 438.6172 -4.758392654273664 45.86394511703338
 438.6172 -7.837737332665122 46.58164728272624
 438.6172 -38.83969897279046 64.12837775452107
 438.6172 -41.937650560497325 62.670631110240436
 438.6172 -44.3335921016828 62.499107102165226
 438.6172 -47.013686068497016 62.046038154284076
 438.6172 -50.54402757057028 61.76051893230493
 438.6172 -53.937614695035556 61.46677384103316
 438.6172 -56.20258321543787 62.51021998473112
 438.6172 -61.022943753920174 60.79270523118214
 438.6172 -62.30066727657099 62.412423719452306
 438.6172 -66.84996387432288 62.67698109617339
 438.6172 -69.12844973986257 64.4212111552373
 438.6172 -71.40961561965509 62.65670927314318
 438.6172 -76.98175476785137 61.97524234706049
 438.6172 -79.98942787009634 63.08660839011287
 438.6172 -81.42352911078713 64.64618289228287
 438.6172 -84.72671157669063 65.44502685366888
 438.6172 -88.18081659063422 62.2045903870773
 438.6172 -92.36493428289046 61.58503101981654
 438.6172 -95.98148517455991 60.77711353070487
 438.6172 -99.46205767966751 59.970635869786804
 438.6172 -100.47887535622017 60.05445951879176
 438.6172 -103.67957685326377 62.520759779253865
 438.6172 -107.76446682410027 65.06629467067643
 438.6172 -109.51911912268555 72.25568874009838
 438.6172 -153.68747449686754 -3.6142388256538425
 438.6172 -149.2753201856171 110.95336018785116
 438.6172 -158.1205787069763 47.53438722638822
 439.5125 181.46722521955536 -175.07650377201333
 439.5125 199.81154001283664 45.47403399887207
 439.5125 194.6638300103808 40.799658938587356
 439.5125 184.46900457810182 38.813444188664675
 439.5125 178.3192910383208 37.811931355047705
 439.5125 174.55743623996682 36.60540652894423
 439.5125 172.68279037790228 21.367954019880585
 439.5125 168.01406508002626 5.372768105158684
 439.5125 166.77330983333758 78.9510230061457
 439.5125 167.54857526447807 164.49617618269684
 439.5125 135.53532737171224 71.22756521408297
 439.5125 131.4937373595365 65.84566305673036
 439.5125 129.55323667652556 63.2537014545444
 439.5125 124.64277136346591 65.51072149403046
 439.5125 120.19728642095815 63.14066408129446
 439.5125 116.94808854799857 64.01463875977271
 439.5125 115.03228734513517 62.62492854395441
 439.5125 111.50335965194924 65.02373652216227
 439.5125 107.6916312700469 65.20283166116974
 439.5125 103.4534035289128 63.431322179011545
 439.5125 102.28663208550401 63.62694107796642
 439.5125 98.21082203550903 63.793512835040474
 440.4085 95.93723005757732 62.2731494681658
 440.4085 94.62930254564748 62.22641865855502
 440.4085 89.11973029095874 62.552996563469094
 440.4085 86.80588275176646 64.88578465520908
 440.4085 84.20686259430781 60.999432241832835
 440.4085 81.32394318570066 63.14020206828121
 440.4085 75.28573502974778 60.41556392536336
 440.4085 72.27430220359562 62.03038156776694
 440.4085 69.41076833571114 62.61373214060308
 440.4085 66.9800775063491 65.6363070074957
 440.4085 64.98053539302495 62.103369677786475
 440.4085 60.844679620335775 60.531779205657756
 440.4085 -8.431968170023364 47.78253810478071
 440.4085 -36.737848577859296 62.723558272382775
 440.4085 -40.27048459509582 64.49856603217648
 440.4085 -43.24079587678974 64.79351279203888
 440.4085 -48.05601452499898 64.18034110456705
 440.4085 -50.750447922045694 61.210551597607264
 440.4085 -54.29997100861758 60.90289718423054
 440.4085 -55.57903096103095 61.03699456458611
 440.4085 -61.41467151127018 60.474386270055106
 440.4085 -62.12736999262807 63.651881816101195
 440.4085 -65.12329528351052 63.08808679626134
 440.4085 -69.84002598141922 59.31460410878714
 440.4085 -72.13102287465625 60.79737523217358
 440.4085 -76.43426282830526 64.7725855159253
 440.4085 -79.45271636428723 63.13673190327887
 440.4085 -83.0530879470444 63.907414870812715
 440.4085 -86.0835069798639 69.98793666638323
 440.4085 -87.96237564942506 60.47051583776914
 440.4085 -91.00230044364707 59.5259672780071
 440.4085 -96.51891401144482 64.93188172012236
 440.4085 -98.41103681107002 61.631318045359194
 440.4085 -101.18107386548361 62.68115069163895
 440.4085 -105.2735663157782 65.244070492903
 440.4085 -107.76449899685458 64.81307383742097
 440.4085 -111.58355438186253 70.38354396051466
 440.4085 -150.49478999082132 26.691961872353204
 440.4085 -149.27550947008913 124.98303176201023
 440.4085 -157.53627726546813 33.218462063129834
 441.3045 194.81385106285077 34.57804733995795
 441.3045 186.175246617154 38.383645118532
 441.3045 181.25761250321014 38.54262437177039
 441.3045 176.36908158426888 36.65993640794227
 441.3045 166.52008181242547 44.81257680759222
 441.3045 167.29768284869942 129.8581473318689
 441.3045 133.53105139379952 68.42644417575644
 441.3045 129.18336595737614 66.09262291682978
 441.3045 125.00190155094394 65.44682774496374
 441.3045 121.87596148802635 64.06805651729536
 441.3045 118.31377928049372 65.25779934590702
 441.3045 115.05782654190884 65.62123318460095
 441.3045 111.81056831262498 64.71677613107585
 441.3045 110.04290536166586 68.28411765427234
 441.3045 103.72871127718328 64.12809585200529
 441.3045 102.70367971144691 64.7998337224571
 441.3045 99.48717904997883 63.57807706542559
 441.3045 98.46531702482781 65.24250542487749
 441.3045 93.51241595421021 62.76623215707485
 441.3045 91.62309923445001 63.301192255951435
 441.3045 87.12729604029104 63.45658183439002
 441.3045 82.7887218093049 60.05863753756415
 441.3045 80.04687732945243 61.673658065035
 441.3045 76.4458678451012 60.63481138147995
 441.3045 72.99573582365811 61.057153241925164
 442.2005 71.1302509832532 62.38991585296537
 442.2005 67.9701239615653 62.999765322360076
 442.2005 64.24182730104361 64.15363481574013
 442.2005 61.09225355653283 67.97732935588544
 442.2005 3.8095536786308397 50.03751270039908
 442.2005 -4.232855364501293 46.28470078627004
 442.2005 -40.71826290717863 64.43212828479534
 442.2005 -45.40658636641168 63.84975848101897
 442.2005 -48.96323911879468 62.573667334796255
 442.2005 -50.6720428103804 64.68368289464581
 442.2005 -53.95034482118467 60.90181742625663
 442.2005 -56.804520947822 62.142191896158124
 442.2005 -60.23406277965889 61.56274801574705
 442.2005 -64.24182730104341 63.15363481574013
 442.2005 -66.82223357577519 61.12649857730821
 442.2005 -71.7053730451152 60.572699213553165
 442.2005 -73.86364162181029 60.31572059744582
 442.2005 -76.45690017800597 63.247075758303254
 442.2005 -79.92045814335374 62.5547223133924
